# .PCD v0.7 - Point Cloud Data file format
VERSION 0.7
FIELDS x y z
SIZE 4 4 4
TYPE F F F
COUNT 1 1 1
WIDTH 259
HEIGHT 1
VIEWPOINT 0 0 0 1 0 0 0
POINTS 259
DATA ascii
0.0090744644 -0.020496538 0.0095855184
0.014926489 -0.020614058 0.0093520666
-0.001001742 -0.011281163 0.0087637762
0.0057607912 -0.013912621 0.0074271332
0.015001774 -0.014887622 0.0058033913
0.022472452 -0.013529074 0.0079274531
-0.010120362 -2.3961067e-05 0.0092477202
-0.0033113202 -0.0040683001 0.0082944511
0.0050375671 -0.0049670665 0.0053741755
0.015097111 -0.0050505996 0.0051061306
0.022014232 -0.0068733925 0.0085254377
-0.010963123 0.0061870478 0.0085684462
-0.0052545248 0.0050367438 0.0063815545
0.0051488192 0.0050594411 0.0042958427
0.013979642 0.0043755518 0.0072604832
0.020592529 0.00074585795 0.0096462965
-0.011239991 0.012603139 0.009009962
-0.0048067337 0.014978657 0.006777978
0.0048166648 0.014678421 0.0064769229
0.01201383 0.012773975 0.0085984301
-0.003795777 0.021307711 0.0084026037
0.0016583172 0.020687068 0.0089944741
0.0082356464 -0.021099547 0.015810553
0.01500962 -0.022718307 0.01494171
0.022718851 -0.021533795 0.016531982
-0.0018414662 -0.012234534 0.015650267
0.0036829817 -0.016922491 0.014505448
0.016364817 -0.019016471 0.010611337
0.025520068 -0.015322588 0.014684106
-0.01086626 -0.0011830033 0.016206805
-0.0063700005 -0.0053352821 0.014805932
0.019195698 -0.0016826134 0.010721572
0.024950197 -0.0048858128 0.014783352
-0.012011435 0.0052638166 0.015094033
-0.009331163 0.0013176064 0.012924383
0.018208856 0.006979282 0.01377675
0.021850139 0.0032968961 0.015473875
-0.013002655 0.01502055 0.014795885
-0.0089012049 0.018093107 0.011067957
0.0080059497 0.018743165 0.013370864
0.013984359 0.014373471 0.015175243
-0.011867682 0.021844564 0.016914045
-0.0051104617 0.023375398 0.014750561
0.0040582917 0.02231613 0.015408309
0.010227737 0.020300686 0.019877434
0.0081362864 -0.021130405 0.024846241
0.014841657 -0.023683023 0.025045672
0.023846943 -0.022819785 0.025066741
-0.0019105938 -0.012441933 0.02490114
0.003296358 -0.017324585 0.025225481
0.027453659 -0.015091739 0.025024848
-0.010520482 -0.0011252216 0.024180645
-0.0064912406 -0.0053860857 0.025006173
0.025642734 -0.004931035 0.024968984
-0.012182067 0.005513214 0.024807747
-0.0092972275 0.0013644586 0.025929324
0.018757399 0.0081086429 0.025451902
0.022116626 0.0037421079 0.02486168
-0.0136318 0.015058588 0.024981733
0.0090628518 0.019242087 0.025374031
0.014342839 0.014805919 0.024920644
-0.012349015 0.021590177 0.024623886
-0.0050178263 0.023883557 0.024929866
0.0045195809 0.023258127 0.02502365
0.010294248 0.02027447 0.024276108
0.0080036512 -0.021037266 0.034938268
0.014964112 -0.023358045 0.035053469
0.022503575 -0.022042152 0.034057774
-0.0017742316 -0.012166019 0.035122123
0.0032111173 -0.016887616 0.035095166
0.02666598 -0.015507106 0.035113681
-0.010541389 -0.00094447104 0.035920344
-0.0063734259 -0.0053584687 0.034983128
0.02559226 -0.0049766959 0.034958899
-0.011768606 0.0054626842 0.035126381
-0.0093623567 0.0015100312 0.034246411
0.018703764 0.0080904504 0.035029933
0.022173325 0.0036555079 0.035094727
-0.013202611 0.015036396 0.034925681
0.0090081934 0.019081216 0.03473103
0.014102458 0.014649343 0.035034876
-0.012171041 0.021653758 0.03536398
-0.0049090893 0.024882162 0.034957238
0.0044780551 0.023431601 0.035004564
0.010203716 0.020107366 0.036381654
0.0082971705 -0.021002589 0.044717737
0.015044976 -0.023287671 0.044900477
0.022099929 -0.021777052 0.045318708
-0.0021098596 -0.012227454 0.045138553
0.0035620439 -0.016956639 0.045158699
0.026482906 -0.015493956 0.044939864
-0.010626631 -0.0014591188 0.04553258
-0.0068751238 -0.0055983677 0.044984441
0.025677921 -0.0049735806 0.045024026
-0.012411903 0.0052408567 0.045021709
-0.0095789852 0.0011831191 0.044594929
0.018869357 0.0082190381 0.044698883
0.022286383 0.0039199418 0.045194887
-0.013946048 0.015023815 0.044875968
0.0091891326 0.01929629 0.044764012
0.014415991 0.014848366 0.045094844
-0.012065851 0.022809103 0.045193322
-0.0050526629 0.026347505 0.045017771
0.0048023718 0.023406411 0.045008712
0.010404796 0.020446701 0.04602243
0.0084640337 -0.020913346 0.05535946
0.014895606 -0.023325402 0.054846261
0.02248814 -0.022332281 0.055469122
-0.0023868629 -0.012307884 0.055241484
0.0037430488 -0.017172614 0.054957505
0.026749661 -0.015295248 0.054876301
-0.010745869 -0.0017347899 0.055071179
-0.0072087422 -0.0057980223 0.055013891
0.026108006 -0.0048604794 0.055036988
-0.012586325 0.0049639042 0.055116244
-0.0097161038 0.00097398664 0.054120708
0.019087845 0.0085499929 0.055152189
0.022474259 0.0044032428 0.055061199
-0.014026536 0.015014552 0.054990929
0.0093763815 0.019603917 0.054016799
0.014869502 0.01508014 0.055125184
0.020285267 0.01036914 0.057038747
-0.012552152 0.022203915 0.055081289
-0.0053417734 0.02618131 0.055101093
0.0048175841 0.023582002 0.055146199
0.010663413 0.020596987 0.054920752
0.0079848068 -0.021092117 0.065000199
0.01508298 -0.02311535 0.065110616
0.021872073 -0.021571761 0.063956134
-0.002361726 -0.012608777 0.065116882
0.0032997103 -0.017332843 0.065061264
0.026044298 -0.015548213 0.065196082
-0.010740299 -0.0017535011 0.065130837
-0.0071438225 -0.0059076012 0.064999983
0.025812762 -0.0049334182 0.065074511
-0.01271425 0.0049883295 0.065056391
-0.0095996493 0.00072325376 0.065104313
0.01914141 0.0084704878 0.064896099
0.022495255 0.0043510525 0.065097719
-0.013921146 0.014931461 0.06512142
0.0095359208 0.019526454 0.065130264
0.014811737 0.015128441 0.065084144
0.020218316 0.010385523 0.065837696
-0.012513886 0.022612596 0.065051265
-0.005071451 0.026558857 0.065072261
0.0048415367 0.023715481 0.06508439
0.010907678 0.020540327 0.065747172
0.0080197612 -0.020947935 0.075014986
0.015067349 -0.022651168 0.075044848
0.021485534 -0.020856347 0.074213944
-0.0022851874 -0.012362164 0.074886054
0.0032836176 -0.017127834 0.075149819
0.019986713 -0.019744873 0.078343451
0.026063167 -0.015811181 0.075220749
-0.010773651 -0.0014332653 0.074724153
-0.0069657275 -0.0057722009 0.075104259
0.026214223 -0.0048659244 0.075063996
-0.01255708 0.005090456 0.07494688
-0.0095920851 0.00082714378 0.07581795
0.019244162 0.0088121453 0.075060092
0.022553653 0.0044966578 0.074997209
-0.014419661 0.014911216 0.075086802
0.009633637 0.019584371 0.075068034
0.015039089 0.015106799 0.075106353
0.020464597 0.01060139 0.075613767
-0.012627441 0.022305669 0.074741244
-0.0050489102 0.026636856 0.075081408
0.0050184797 0.024129475 0.075088091
0.010940586 0.020651093 0.075353958
0.0082376767 -0.020801798 0.084422894
0.01503797 -0.022346687 0.084961288
0.021558233 -0.020846907 0.086074583
-0.0019351031 -0.012245674 0.084920987
0.0035787208 -0.01696912 0.08527647
0.012386222 -0.019751474 0.087731287
0.026283327 -0.015658181 0.084897496
-0.010588169 -0.0012444681 0.084304884
-0.0067356261 -0.0056140246 0.085037053
0.026314806 -0.0049879528 0.085097738
-0.012452316 0.0052093235 0.084898368
-0.0094214296 0.001229951 0.085691318
0.019289436 0.0088841543 0.084766917
0.022714011 0.0046021016 0.085022449
-0.014128649 0.015165305 0.085089587
0.0097047621 0.019721685 0.084201537
0.015199061 0.015257224 0.085067421
0.020418674 0.010805126 0.085282594
-0.012452483 0.022786291 0.08516264
-0.0050624078 0.026790112 0.08494588
0.0051935613 0.024111433 0.08504831
0.011047689 0.020801909 0.085336089
0.0089166956 -0.020465363 0.092831768
0.015095462 -0.021429116 0.093720235
0.022054633 -0.020973681 0.092987105
-0.0016682904 -0.01178348 0.094597675
0.0045452169 -0.016480541 0.095135815
0.014804901 -0.019084169 0.098031878
0.024794554 -0.015079403 0.095194966
-0.01039987 -0.00083045894 0.093511999
-0.0061592851 -0.0052817282 0.094965398
0.025350729 -0.0049766726 0.095079534
-0.011796141 0.0056010531 0.094549209
-0.0091091162 0.0025469931 0.096702039
0.019138083 0.0084371539 0.095700383
0.022345383 0.0043252651 0.094775155
-0.012546655 0.015009576 0.094786674
-0.0090665771 0.016767573 0.09871842
0.0090289302 0.01936643 0.096716039
0.014948632 0.01510272 0.094975054
0.02046464 0.010793477 0.093414195
-0.011896725 0.02182705 0.092890635
-0.0051481393 0.024554409 0.09515027
0.0047259848 0.023240007 0.094891421
0.010576635 0.020533789 0.09370219
-0.0011055362 -0.010890872 0.10242662
0.0052746348 -0.013270166 0.10454733
0.014743383 -0.014370732 0.10403142
0.02175248 -0.012597385 0.10175035
-0.0043198261 -0.0050152214 0.10493347
0.0016498636 -0.0091677532 0.10801985
0.017772352 -0.0062619834 0.10751249
0.022010744 -0.0046965578 0.10336335
-0.010639596 0.0073290812 0.10122156
-0.0072839176 0.0048904126 0.10532695
0.018738165 0.0061222422 0.10581912
0.021114487 0.0034286922 0.10360952
-0.01059587 0.013424478 0.10112222
-0.0050635496 0.014728791 0.10445891
0.0052429629 0.01767865 0.10608244
0.014054103 0.013849926 0.10488529
0.020121694 0.010350516 0.10177118
-0.010136396 0.020628244 0.10030256
-0.0031580594 0.021739092 0.10139577
0.0034906254 0.021285802 0.10210909
0.0065189912 -0.010747462 0.11209833
0.011290827 -0.010597753 0.11108238
-0.0027854382 -0.0039541437 0.1145872
0.0044287452 -0.0079659717 0.11595374
0.014701954 -0.0050850092 0.11484104
0.02040836 -0.0011370735 0.11173512
-0.0042240494 0.0050992351 0.11524235
0.001278758 0.0086138221 0.1191712
0.016766816 0.0052207448 0.11554121
0.020605588 0.0026556719 0.11162049
-0.002115536 0.011350201 0.11309586
0.0052444986 0.013404988 0.11477683
0.013140999 0.012015539 0.11418647
-0.0010068238 -0.0014651837 0.1209462
0.0054023643 -0.0031975238 0.12367675
0.01179172 -0.0022563445 0.1222838
-0.0010582429 0.0035534827 0.12181014
0.0049328166 0.0050762692 0.12568511
0.012271894 0.0046406081 0.12323725
-0.00033885241 0.010015458 0.12054925
0.0065019038 0.010544034 0.12134461
0.011010476 0.010667836 0.12163766
0.0066489466 -0.00023844838 0.13011762
0.0062350906 0.0020576126 0.13093399
0.010581478 0.0031027868 0.13043189
