# .PCD v0.7 - Point Cloud Data file format
VERSION 0.7
FIELDS x y z
SIZE 4 4 4
TYPE F F F
COUNT 1 1 1
WIDTH 1373
HEIGHT 1
VIEWPOINT 0 0 0 1 0 0 0
POINTS 1373
DATA ascii
-0.0976322 0.08239121 0.52804929
-0.092626765 0.082175687 0.52666801
-0.088143833 0.081982665 0.52543086
-0.081211366 0.081688955 0.52967185
-0.07772515 0.081538834 0.5286985
-0.072765723 0.081325278 0.52731383
-0.067832202 0.081112847 0.52593637
-0.064883426 0.080985874 0.52511311
-0.057769097 0.080684364 0.52934927
-0.052855909 0.08047279 0.52796113
-0.047481541 0.080241352 0.52644283
-0.043590598 0.080073804 0.5253436
-0.27250215 0.089882582 0.5272947
-0.26759088 0.089671202 0.52605462
-0.26303932 0.089476764 0.52678311
-0.25718701 0.089227803 0.5290519
-0.25229555 0.089017272 0.5278036
-0.24742797 0.088807769 0.52656138
-0.2431193 0.088622324 0.52546185
-0.23689815 0.088358954 0.52956408
-0.23258783 0.088173434 0.52845216
-0.22776072 0.087965652 0.5272069
-0.2224234 0.087735921 0.52583003
-0.21736668 0.087520495 0.5274027
-0.21229906 0.087304592 0.52896345
-0.2075143 0.087098628 0.52771556
-0.2027529 0.086893678 0.52647382
-0.1985382 0.086712249 0.52537459
-0.19197014 0.086434036 0.52947557
-0.1872296 0.086229965 0.52822542
-0.18251057 0.086026825 0.52698106
-0.17781454 0.085824683 0.52574277
-0.17107868 0.085539281 0.52984917
-0.16742611 0.085382029 0.52887511
-0.16223 0.085158333 0.52748954
-0.15912433 0.08502464 0.52666134
-0.30543381 0.091295548 0.52997565
-0.30264634 0.091175601 0.52927935
-0.29764631 0.090960413 0.52803016
-0.292669 0.090746194 0.52678663
-0.28771594 0.090533033 0.52554923
-0.28128919 0.090260766 0.5295133
-0.27743581 0.090094924 0.52854037
0.12867507 -0.050415069 0.53236651
0.12837884 -0.047557786 0.53262722
0.12697731 -0.042851996 0.53214508
0.1822902 -0.042582225 0.53049099
0.12408462 -0.037146207 0.53257811
0.12537967 -0.039450839 0.53127581
-0.10952546 -0.030396933 0.53496933
0.12317231 -0.032592185 0.53204226
-0.11165506 -0.027311441 0.5345645
-0.10853453 -0.027106164 0.53447747
0.12281599 -0.027345981 0.53193402
-0.11652067 -0.021685116 0.53429955
-0.11232173 -0.022561304 0.5339722
-0.10756677 -0.022573931 0.53442878
-0.10402662 -0.021384202 0.53481257
0.12282 -0.022549089 0.53195125
-0.1218937 -0.017115453 0.53454804
-0.11772195 -0.017678836 0.53351218
-0.11259562 -0.017880192 0.53270102
-0.10744739 -0.017686445 0.53317428
-0.10283954 -0.017607803 0.53419268
-0.099852189 -0.015918465 0.53484374
0.12286533 -0.017757777 0.53214753
-0.12685899 -0.011741043 0.53405237
-0.1225618 -0.012497958 0.53290802
-0.1175781 -0.012478581 0.5321061
-0.11276037 -0.012476121 0.53202152
-0.10755067 -0.012484044 0.53236085
-0.10243431 -0.012504553 0.53322387
-0.098469064 -0.012001949 0.53440857
0.12302148 -0.012299018 0.53234577
-0.13068737 -0.0053046537 0.53469241
-0.12745373 -0.0071390271 0.53359753
-0.12234566 -0.0071970266 0.53196961
-0.11746666 -0.0071920063 0.53160292
-0.11264456 -0.0071904273 0.53147483
-0.10745375 -0.0071958844 0.53188223
-0.10235132 -0.0072080195 0.53279042
-0.097635798 -0.0071859341 0.53388983
-0.094967835 -0.0053027724 0.5345028
0.12332742 -0.0071979151 0.53207648
-0.13111359 -0.0026255497 0.53468162
-0.12744725 -0.0024046698 0.53323549
-0.12229203 -0.0023980355 0.53173643
-0.1174067 -0.002396276 0.53133124
-0.11256218 -0.0023951675 0.53108585
-0.10739083 -0.0023972667 0.53157151
-0.10229107 -0.0024014791 0.53247672
-0.097700618 -0.0024065219 0.53363615
-0.094180793 -0.0021884681 0.53466773
0.12342759 -0.0024010451 0.53250909
-0.1307015 0.0024116137 0.53475022
-0.12747648 0.0024052213 0.5333572
-0.12225451 0.0023970949 0.53157228
-0.1173417 0.0023945232 0.53103709
-0.11253216 0.0023943326 0.53094488
-0.10736711 0.0023965093 0.53145337
-0.10224667 0.0024000739 0.53224653
-0.09769655 0.0024063427 0.53361422
-0.094378874 0.0022355763 0.53464323
0.12363967 0.0021598134 0.53238624
-0.1310256 0.0075935712 0.53459615
-0.12740365 0.0072108628 0.53305292
-0.12227304 0.0071926834 0.53165269
-0.11730559 0.0071819206 0.53087324
-0.11252318 0.0071820766 0.53090245
-0.10759779 0.0070805075 0.53127676
-0.10249821 0.0072990139 0.53195149
-0.097649686 0.0072152056 0.53335822
-0.093783997 0.0074015907 0.5345462
0.12384699 0.0072007016 0.53224105
-0.13113579 0.012338907 0.53409916
-0.12733561 0.012493333 0.53277177
-0.12227695 0.012466988 0.53166854
-0.11728471 0.012446467 0.53077906
-0.11243503 0.012439382 0.53048521
-0.10771267 0.012446688 0.53079408
-0.10261977 0.012467819 0.53169274
-0.097565144 0.012495946 0.53289717
-0.093703672 0.012324113 0.53436643
0.12389844 0.012486014 0.53246212
-0.13103671 0.016681289 0.53454292
-0.12735605 0.017713597 0.533189
-0.12220159 0.017731065 0.53134131
-0.11728249 0.017711982 0.53076911
-0.11241559 0.017699471 0.53039283
-0.10770145 0.017711081 0.53073889
-0.10260177 0.017739665 0.53159928
-0.097531997 0.017776884 0.5327158
-0.093543634 0.01792779 0.53419822
0.12399778 0.017938031 0.53232843
-0.1274703 0.022702187 0.53366584
-0.12221275 0.022525398 0.53138947
-0.11727297 0.022497194 0.53072584
-0.11243311 0.022486744 0.53047705
-0.10771915 0.022501245 0.53082466
-0.10258785 0.02253101 0.53152716
-0.097538754 0.022583272 0.53275323
-0.093754306 0.02248208 0.53437805
0.12425747 0.022549203 0.53194898
-0.12755215 0.027435198 0.53367275
-0.1222379 0.027323704 0.53149927
-0.11729485 0.027289059 0.53082448
-0.11242711 0.027269537 0.53044796
-0.10765965 0.027273765 0.53053129
-0.10260013 0.027328597 0.53159314
-0.097576968 0.027398925 0.53296041
-0.093970731 0.027468406 0.53431851
0.1243256 0.027362032 0.53224075
-0.12756132 0.03225103 0.53371167
-0.12220749 0.0322394 0.53168803
-0.11735249 0.032571454 0.53108537
-0.1124547 0.032540195 0.53057694
-0.10770123 0.032550197 0.53073752
-0.10273054 0.032384153 0.53159028
-0.097596675 0.032211982 0.53306884
-0.093744561 0.032458059 0.53432214
0.12450459 0.03223842 0.53245932
-0.12749045 0.03738327 0.53384715
-0.12239837 0.037501838 0.53190929
-0.11738504 0.037850592 0.53123295
-0.11249713 0.037818257 0.53077728
-0.10775863 0.037835591 0.53101999
-0.10250179 0.037626464 0.53175902
-0.097609311 0.037505522 0.53313798
-0.093600608 0.037379064 0.53445721
0.12459221 0.037275884 0.53278691
0.12503365 0.038324628 0.53116089
-0.12743604 0.042233475 0.53414989
-0.12240106 0.04272034 0.53220671
-0.11741933 0.042654429 0.53138852
-0.11254793 0.042624637 0.53101724
-0.10743721 0.042720951 0.53139192
-0.10232881 0.042637665 0.53209633
-0.09759023 0.042786222 0.53303289
-0.093219273 0.042774241 0.53438622
0.12461568 0.042821877 0.53347319
0.12509172 0.042656016 0.53140754
-0.12661338 0.047494151 0.53440517
-0.12259375 0.047595464 0.53304434
-0.11748298 0.047472831 0.53167558
-0.11261912 0.047444116 0.53135371
-0.1073897 0.047462754 0.53156555
-0.10225358 0.047526482 0.53228062
-0.097574651 0.047585778 0.53294587
-0.092993014 0.047701463 0.53424186
0.12471144 0.047669921 0.53388315
0.12515342 0.047472149 0.53166974
-0.12622282 0.052924126 0.53467572
-0.12268796 0.052442063 0.53345358
-0.11755542 0.052299976 0.53200376
-0.11271079 0.052278772 0.53178602
-0.10740995 0.052266423 0.53166288
-0.10222813 0.052314062 0.532148
-0.097539403 0.052373514 0.53275275
-0.09295781 0.052500296 0.53404123
0.12479995 0.05252225 0.53426206
0.12549557 0.052453101 0.53090739
-0.12666656 0.057716545 0.5343166
-0.12239897 0.05747468 0.53264469
-0.11752801 0.057564095 0.53188092
-0.11268457 0.057540499 0.53166205
-0.10766769 0.057398427 0.53145534
-0.10251232 0.057675537 0.53186578
-0.097584859 0.057272494 0.53259784
-0.092590876 0.057384532 0.53371298
0.12489381 0.057383992 0.53466386
0.1255229 0.05749125 0.53120756
-0.1269334 0.062165678 0.53390795
-0.12252665 0.062677115 0.53229094
-0.11741359 0.06278 0.53136086
-0.11254229 0.062735885 0.53099108
-0.10773944 0.062727913 0.53092325
-0.10256421 0.062784784 0.5314039
-0.097374126 0.06248299 0.53221232
-0.092541374 0.062351942 0.53366274
-0.089258984 0.061275087 0.53495824
0.12584306 0.062595136 0.53200984
-0.12700267 0.067838281 0.53429151
-0.1225509 0.06776239 0.53285784
-0.11733179 0.067524642 0.53098863
-0.11248218 0.067489751 0.53070891
-0.10759072 0.06766475 0.53124326
-0.1024853 0.067536756 0.53188306
-0.097532101 0.067745119 0.53271395
-0.092587821 0.067539148 0.53412986
0.12797868 0.065666966 0.53145444
0.13292202 0.068501271 0.53206605
0.19381955 0.069910079 0.5345785
0.19725646 0.069761962 0.53344584
0.20238645 0.069540866 0.53175527
0.20621364 0.069375925 0.53049397
0.21773361 0.068885215 0.53410876
0.22280495 0.068666637 0.53241396
0.22784422 0.068449438 0.53072983
0.23868161 0.067988195 0.53463095
0.24244092 0.067826144 0.53335661
0.24742682 0.067611225 0.53166658
0.25114658 0.067450888 0.53040576
0.26255912 0.066964895 0.53416079
0.26748785 0.066752419 0.53246599
0.27238712 0.06654121 0.53078127
0.28395948 0.066048376 0.53454125
0.28761026 0.065890975 0.53326744
0.29245225 0.065682225 0.531578
0.29606459 0.065526478 0.53031754
0.30659243 0.06507872 0.53449655
-0.12663224 0.071272746 0.53467298
-0.12251871 0.072461598 0.53367084
-0.11760702 0.072485529 0.53223556
-0.11257046 0.072578147 0.5321331
-0.10754113 0.072162762 0.53240937
-0.10238089 0.072100043 0.53294307
-0.097567812 0.072266042 0.53366143
-0.093657382 0.071744628 0.53453016
0.082391739 0.074683502 0.53423536
0.087436222 0.074466176 0.53268069
0.092452303 0.074250072 0.5311349
0.095629781 0.074113175 0.53015566
0.10366669 0.073772348 0.53461593
0.10729551 0.073616013 0.53348291
0.11226054 0.073402084 0.53193265
0.1167504 0.073208645 0.53053081
0.12497166 0.072859921 0.53499711
0.12766227 0.07274399 0.53414583
0.13303217 0.0720402 0.53250271
0.13745847 0.072321892 0.53104645
0.1401114 0.072207585 0.5302071
0.18244967 0.07039436 0.53095806
0.18503107 0.070283122 0.530119
-0.12100258 0.075686872 0.53451586
-0.11729836 0.076005727 0.53374511
-0.11329898 0.07574717 0.53380626
-0.041184913 0.079975113 0.53097987
-0.038739581 0.079869799 0.53028065
-0.031340659 0.079556189 0.53460091
-0.027425822 0.07938759 0.53346795
-0.022554692 0.079177797 0.53205824
-0.017709237 0.078969121 0.53065598
-0.010132552 0.078647904 0.53498209
-0.0072270436 0.078522764 0.53413087
-0.0024033182 0.078315012 0.5327177
0.00239495 0.078108348 0.53131187
0.0057395771 0.077964306 0.53033209
0.013979916 0.077614531 0.53451127
0.01779807 0.077450082 0.53337872
0.022548897 0.077245452 0.53196943
0.027274694 0.077041902 0.53056765
0.037577506 0.076603346 0.53418326
0.042752795 0.076380409 0.53262866
0.04743113 0.076178893 0.53122342
0.050692156 0.07603842 0.53024387
0.05835228 0.075713731 0.53470558
0.062541969 0.075533248 0.53343087
0.067637451 0.075313747 0.53188074
0.071784496 0.075135097 0.53061908
-0.1569124 0.084934056 0.53204489
-0.15275139 0.084754907 0.53092271
-0.14743502 0.084528387 0.53252614
-0.14210917 0.084301442 0.53411728
-0.13744511 0.084100634 0.53284502
-0.13280401 0.083900817 0.5315789
-0.12869601 0.083723955 0.53045839
-0.12151285 0.083419442 0.53463924
-0.11791925 0.083264709 0.5336476
-0.11280727 0.083044603 0.53223693
-0.10772224 0.082825661 0.53083366
-0.097826101 0.08240436 0.53431058
-0.092760965 0.082186274 0.5328964
-0.087722562 0.081969313 0.53148973
-0.083710253 0.081796549 0.53036952
-0.076676488 0.081498541 0.53469098
-0.072664902 0.081325807 0.53355759
-0.067673393 0.08111085 0.53214747
-0.062708192 0.080897048 0.53074467
-0.052518923 0.080463208 0.53422052
-0.047574531 0.080250271 0.53280675
-0.04363713 0.08008071 0.531681
-0.27255264 0.089889154 0.53297317
-0.26758847 0.089675486 0.53170633
-0.26319605 0.089486443 0.53058541
-0.25652069 0.089203574 0.53462613
-0.25267678 0.089038119 0.53363454
-0.24720871 0.08880277 0.53222394
-0.24231166 0.088591985 0.53096068
-0.23960063 0.088475287 0.53026128
-0.23275153 0.088184975 0.53429759
-0.22732942 0.087951586 0.53288352
-0.22247358 0.08774256 0.53161705
-0.21817699 0.087557621 0.53049648
-0.21169853 0.087283306 0.53467798
-0.20740083 0.0870983 0.53354466
-0.2025864 0.08689104 0.53227508
-0.19779566 0.086684816 0.53101176
-0.19461305 0.086547814 0.53017253
-0.18742271 0.086242892 0.53420746
-0.18212146 0.086014666 0.53279376
-0.17737384 0.085810289 0.53152776
-0.17369683 0.085651994 0.53054732
-0.16634096 0.085339971 0.53458768
-0.16214013 0.085159123 0.53345478
-0.15899952 0.08502391 0.53260773
-0.30133465 0.091123499 0.53457457
-0.29740733 0.090954475 0.53358293
-0.29237923 0.090738073 0.53231341
-0.28737417 0.090522669 0.53104973
-0.28280687 0.090327561 0.5317921
-0.27753961 0.090103805 0.53424585
0.127056 -0.05043371 0.53769708
0.12700906 -0.047506668 0.53749776
0.12455417 -0.040710948 0.53735936
0.12594104 -0.043055829 0.53638822
-0.11583292 -0.036613811 0.53887433
-0.11247828 -0.036484633 0.53850865
-0.10785537 -0.036303822 0.53908509
0.1232812 -0.037420582 0.53709704
-0.12077442 -0.031611968 0.53923601
-0.11745466 -0.032326736 0.53712589
-0.11267897 -0.032402478 0.53619707
-0.1073761 -0.032500535 0.53671193
-0.10330614 -0.031819217 0.5389291
0.12209761 -0.032464094 0.53721803
-0.12158367 -0.027424028 0.53815085
-0.11746708 -0.027553201 0.53597742
-0.11393189 -0.027879313 0.5352698
-0.10624202 -0.027981196 0.53605747
-0.10255996 -0.02760211 0.53835738
0.12192386 -0.02757835 0.53645337
-0.12573993 -0.020875741 0.53828603
-0.12237697 -0.02265235 0.53746676
-0.11803706 -0.023552701 0.53605711
-0.10567775 -0.024609886 0.5350312
-0.10216201 -0.023071671 0.53664118
-0.098299138 -0.02218728 0.53867298
-0.09495791 -0.020939436 0.53992844
0.12193134 -0.022741195 0.53648674
-0.13109107 -0.015808757 0.53932822
-0.12723187 -0.01733922 0.53699589
-0.12309042 -0.018751673 0.53558969
-0.10092099 -0.019556625 0.53539759
-0.097551629 -0.017901564 0.53641444
-0.093085736 -0.016912516 0.5384149
0.12199943 -0.017654125 0.53698039
-0.13567907 -0.010212403 0.53919804
-0.13224286 -0.012009394 0.53730899
-0.1286733 -0.012938055 0.53567672
-0.096177272 -0.013222673 0.53553504
-0.092496261 -0.012107908 0.53695709
-0.089257635 -0.011715719 0.53919274
0.12212957 -0.01237484 0.53716576
-0.13613713 -0.0070379241 0.53812188
-0.13256934 -0.0073556541 0.53614008
-0.12980266 -0.0091682179 0.53502119
-0.095065378 -0.0082036378 0.53505182
-0.092410386 -0.0072578709 0.53645837
-0.088518038 -0.0071869954 0.53880197
0.12228902 -0.0074918643 0.53782421
-0.1367659 -0.0026033418 0.5382514
-0.13364983 -0.0021582691 0.53573972
-0.091571696 -0.0025875566 0.53587466
-0.087880462 -0.0024281575 0.53834987
0.12254231 -0.0024212939 0.53703821
-0.13611199 0.0024222168 0.53744709
-0.13310754 0.0022454278 0.53575295
-0.091695368 0.0025166902 0.53554767
-0.087641329 0.0025352088 0.53821021
0.12282818 0.0027825849 0.53670478
-0.13576356 0.007145795 0.537126
-0.13335724 0.0071095056 0.53572899
-0.091142431 0.0070224036 0.53556019
-0.087367378 0.0072807176 0.53818679
0.12298799 0.007263422 0.53687513
-0.13620456 0.012355996 0.53801852
-0.13344194 0.012786398 0.53589368
-0.091091782 0.012847701 0.53552395
-0.087359659 0.012216107 0.53765666
-0.084229447 0.012658572 0.53983068
0.12307686 0.012373396 0.53707176
-0.13591965 0.017475998 0.53822333
-0.13290818 0.018287025 0.53638583
-0.12983161 0.019788461 0.53514051
-0.090910561 0.017690195 0.53538704
-0.087198235 0.017523544 0.53756922
-0.08420644 0.016549315 0.5396831
0.1231863 0.017288264 0.53750765
-0.13571337 0.022398517 0.53823084
-0.13256189 0.02273812 0.53641766
-0.12980606 0.020749668 0.53503519
-0.091148451 0.022926895 0.53559482
-0.087280132 0.022790588 0.5376482
-0.084229849 0.023856884 0.53983325
0.12331488 0.022728927 0.53618544
-0.13525565 0.027632564 0.53751534
-0.1324881 0.027560901 0.53611988
-0.091317639 0.02754027 0.53571677
-0.087303594 0.027646907 0.53778803
-0.084027864 0.028063549 0.53957915
0.12351964 0.027611181 0.5370757
-0.13518658 0.032464232 0.53724086
-0.13244906 0.032387026 0.53596228
-0.091145501 0.032140702 0.53557819
-0.087288946 0.032491557 0.5376991
-0.083833031 0.032973643 0.53963083
0.1237913 0.032805536 0.53755742
-0.13556269 0.035956193 0.53873563
-0.1325191 0.037240721 0.53624487
-0.090781845 0.037181973 0.53540391
-0.087230153 0.037316278 0.53733999
-0.084188655 0.037471093 0.5395692
0.12402717 0.037306122 0.53718299
-0.13253349 0.04225602 0.53676492
-0.12910603 0.04412986 0.53533363
-0.090658456 0.042094834 0.5352453
-0.087712653 0.042324185 0.53666204
-0.084112041 0.042299449 0.53908283
0.1242037 0.042125821 0.53689742
-0.13236287 0.047434025 0.53728032
-0.12880257 0.048285738 0.53537625
-0.090258434 0.047783766 0.53516275
-0.087404221 0.047516145 0.53666019
-0.084054433 0.047306765 0.53915906
0.12435926 0.047905378 0.53651845
-0.13181758 0.052638628 0.53685886
-0.12822129 0.052399125 0.53546882
-0.090263784 0.052614011 0.53519446
-0.087564014 0.052733067 0.53640723
-0.083869055 0.052576445 0.53877354
0.12454192 0.052821916 0.53730661
-0.13184991 0.057451501 0.53680396
-0.12883104 0.057252016 0.53543913
-0.090262055 0.055991348 0.5351842
-0.087558687 0.057566836 0.53637558
-0.083482735 0.057668045 0.53861129
0.12477925 0.057778109 0.53833044
-0.13242622 0.062621176 0.53714389
-0.12914392 0.062761456 0.53529084
-0.087417476 0.062401738 0.53600305
-0.083501935 0.062627368 0.53828853
0.12497817 0.060552351 0.53710687
0.12515362 0.0622136 0.53681791
-0.13183995 0.066767283 0.53709126
-0.12940978 0.06736058 0.53539097
-0.090245642 0.069011442 0.53508687
-0.08752434 0.067216218 0.53616345
-0.083709903 0.067358218 0.53858554
0.132128 0.068610169 0.53762072
0.19252661 0.06996581 0.53500462
0.20232399 0.069549404 0.53925854
0.20749344 0.069326594 0.5375309
0.2126299 0.0691052 0.5358144
0.22388598 0.068625957 0.53964603
0.22729111 0.068479188 0.53849185
0.23237334 0.068260111 0.53676915
0.23616473 0.068096675 0.53548402
0.24758026 0.067610614 0.53931159
0.25218731 0.067412011 0.53772742
0.25718284 0.06719666 0.53600961
0.26008347 0.067071624 0.53501219
0.26876181 0.066703595 0.5398441
0.2724846 0.066543095 0.53854513
0.27783334 0.066312492 0.53667885
0.28151527 0.066153757 0.53539413
0.29325297 0.065653883 0.53922045
0.29772511 0.065461062 0.5376367
0.30257431 0.065251984 0.53591955
-0.13129267 0.07099475 0.53915691
-0.12775192 0.072465919 0.53653961
-0.12432679 0.074983083 0.53637838
-0.10671463 0.074845113 0.53539139
-0.10286474 0.074854665 0.53545982
-0.09758877 0.074882932 0.535662
-0.091629751 0.072934799 0.53612906
-0.08788009 0.071817145 0.5374971
-0.084568791 0.070474282 0.53889275
0.077779815 0.074882179 0.53565657
0.088530436 0.074424483 0.53934181
0.092684537 0.07424552 0.53804487
0.097277239 0.07404764 0.5366109
0.10093447 0.073890068 0.535469
0.10955586 0.073524155 0.53987443
0.1122957 0.0734061 0.53900754
0.11729732 0.073190592 0.53742516
0.12227054 0.072976306 0.53585172
0.13341348 0.071890302 0.53856701
0.13737914 0.072330914 0.53824168
0.18472473 0.070302062 0.53757584
0.18776631 0.070170969 0.53657335
0.19123137 0.070021629 0.5354315
-0.12597972 0.075393274 0.5393126
-0.12242946 0.07649722 0.5379557
-0.11738851 0.077671506 0.53711909
-0.11200055 0.07660687 0.53758776
-0.10733186 0.076249376 0.53848833
-0.10248897 0.076259591 0.53856051
-0.097637191 0.07626389 0.53859085
-0.093153864 0.075666301 0.53865665
-0.04070681 0.079959556 0.53731143
-0.037245937 0.079810515 0.5363099
-0.033796098 0.079661928 0.53531146
-0.026285745 0.079343617 0.53971446
-0.022836424 0.07919506 0.53870392
-0.017929856 0.078983732 0.53726649
-0.013049406 0.078773543 0.53583664
-0.0024333871 0.078321502 0.53937995
0.0024248089 0.078112237 0.53793889
0.0072571142 0.077904105 0.53650546
0.011105138 0.077738367 0.53536409
0.0194674 0.077383436 0.53962314
0.022830486 0.077238567 0.5386129
0.02761439 0.077032506 0.53717595
0.03237284 0.076827534 0.53574657
0.042812835 0.076383151 0.53943306
0.047549766 0.076179095 0.537992
0.052732628 0.075955823 0.53641522
0.056015603 0.075814396 0.53541648
0.064266294 0.075464368 0.53982115
0.067546718 0.075323038 0.53881025
0.072213016 0.075122006 0.53737211
0.075001866 0.075001866 0.53651273
-0.15676107 0.084932275 0.53811413
-0.15255301 0.084751092 0.5369662
-0.14783911 0.084548146 0.53568035
-0.14073658 0.084247157 0.53994411
-0.13759443 0.084111862 0.5390771
-0.13237804 0.083887264 0.53763759
-0.12718944 0.083663851 0.53620577
-0.12357286 0.083508134 0.53520769
-0.11628459 0.083199196 0.53946424
-0.11215258 0.083021268 0.53831065
-0.10752389 0.082821958 0.5370183
-0.10291819 0.082623638 0.53573239
-0.092898354 0.082197115 0.53927404
-0.087799452 0.081977531 0.53783345
-0.08272773 0.08175914 0.53640062
-0.079192638 0.08160691 0.53540194
-0.071548611 0.081282713 0.53966147
-0.067510784 0.081108831 0.53850698
-0.062486839 0.080892466 0.53707051
-0.057489622 0.080677271 0.53564173
-0.047171231 0.080237947 0.53918231
-0.043187678 0.080066405 0.53802943
-0.27260417 0.089895859 0.53877527
-0.26758596 0.089679867 0.53748077
-0.2625927 0.089464933 0.53619254
-0.25872424 0.089298427 0.53519464
-0.25195727 0.089011699 0.53930652
-0.2475356 0.088821359 0.53815329
-0.24258423 0.088608235 0.53686202
-0.23765568 0.08839608 0.53557658
-0.2307207 0.088102162 0.53969407
-0.22743499 0.087960713 0.5388276
-0.22252572 0.087749384 0.5375331
-0.21763913 0.087539032 0.53624451
-0.21439409 0.087399341 0.53538877
-0.20728393 0.087097906 0.53950363
-0.20241699 0.086888388 0.53820574
-0.19757257 0.086679846 0.53691399
-0.19275217 0.086472318 0.53562856
-0.1854707 0.086163551 0.5397467
-0.18225791 0.086025223 0.53888023
-0.17745584 0.085818492 0.5375852
-0.17267767 0.085612789 0.53629655
-0.1689758 0.085453406 0.53529823
-0.16204743 0.085159875 0.53955621
-0.15940048 0.085045919 0.5388341
-0.30753672 0.091390431 0.5361405
-0.30414891 0.091244631 0.53528512
-0.29772982 0.090972804 0.53939837
-0.29264632 0.09075401 0.53810108
-0.28758627 0.090536207 0.53680974
-0.28310922 0.09034352 0.53566724
-0.27652255 0.090064526 0.5397861
0.12682013 -0.050434262 0.54291034
-0.11225381 -0.045933228 0.54469579
0.12667987 -0.047442924 0.54230994
-0.11579011 -0.042652212 0.54354191
-0.11247423 -0.042545322 0.5426501
-0.10842339 -0.041671414 0.54356009
0.12459503 -0.041044503 0.54175162
0.12584186 -0.043467004 0.54151267
-0.12065574 -0.036294799 0.54381669
-0.11772924 -0.037614997 0.54163194
-0.11241844 -0.03906244 0.54063344
-0.10719787 -0.038576715 0.54141331
-0.10371374 -0.036346894 0.54214907
0.1231422 -0.037628178 0.54180789
-0.12158791 -0.032880161 0.54141611
-0.10193369 -0.033217248 0.54216826
0.12170232 -0.03226015 0.54192495
-0.12382726 -0.027810659 0.54095918
-0.10033929 -0.029857054 0.54269624
-0.099083252 -0.027112668 0.54163855
0.12146877 -0.027805939 0.54088503
-0.096769854 -0.023538958 0.54065555
-0.093072012 -0.020801773 0.54142958
0.12163999 -0.022470715 0.54164743
-0.13323267 -0.015453679 0.54110813
-0.09126924 -0.018157002 0.54116118
-0.088733673 -0.016572455 0.54307097
0.1219462 -0.017139856 0.54301101
-0.13606064 -0.012249646 0.54330808
-0.13407467 -0.014138783 0.54057223
-0.087006629 -0.012376255 0.54163915
-0.08460924 -0.011036365 0.5438394
0.12225679 -0.0132563 0.54439402
-0.085953303 -0.0074921399 0.54065365
-0.08418034 -0.0073425695 0.54265803
0.12227577 -0.0053586992 0.54014003
-0.13903432 -0.0014635192 0.54089981
-0.085269973 -0.0024364891 0.5402537
-0.084106788 -0.0023358043 0.54183435
0.12243563 -0.0024381068 0.54084617
-0.085238792 0.0014611906 0.54005623
-0.083924636 0.0024395133 0.54100621
0.12270663 0.0024452512 0.54204333
-0.083732404 0.0075689522 0.54134935
0.12310012 0.0073583601 0.54378146
-0.083117023 0.012025661 0.54123878
-0.082872793 0.017602885 0.54115349
0.12329911 0.019494046 0.54035485
-0.082097329 0.022384956 0.54207957
0.12350599 0.022944739 0.54126149
-0.081695102 0.027400969 0.54213881
-0.079962872 0.027962476 0.54392678
0.12395849 0.027929595 0.5432446
-0.081799276 0.032574441 0.54107398
-0.079834171 0.034774397 0.54305136
-0.13664103 0.038376123 0.54204512
-0.082013384 0.037589733 0.54128146
-0.079635993 0.036509741 0.54337209
-0.1362703 0.042003952 0.54154766
-0.081629805 0.042523246 0.54097569
0.12425014 0.04336594 0.54025197
-0.081491485 0.047333784 0.54105276
-0.079617001 0.048279248 0.54290819
0.12444244 0.047337823 0.5410881
-0.081318453 0.051974062 0.54090059
-0.079392992 0.052439265 0.54338783
0.12480631 0.051391561 0.54267025
0.12516429 0.053992722 0.54422677
-0.0810064 0.057329334 0.54077399
-0.079240508 0.057236657 0.54326105
-0.08087898 0.062620446 0.54051429
-0.079553865 0.061782319 0.54305309
0.12588328 0.063917562 0.54098821
0.30922529 0.064971507 0.54164028
0.31084454 0.06490168 0.54105824
-0.13380483 0.068856493 0.54145432
-0.081110463 0.067887545 0.54152393
-0.079933271 0.065712161 0.54372549
0.13212703 0.068745062 0.5405826
0.19363481 0.069923922 0.54216242
0.1975565 0.069754884 0.54085177
0.20924467 0.069257088 0.54460895
0.21271263 0.0691076 0.54343349
0.21745881 0.068903014 0.5418247
0.2213212 0.068736523 0.54051548
0.23316589 0.068232015 0.54426825
0.23785786 0.068029746 0.54265487
0.24252293 0.06782864 0.54105073
0.24505654 0.0677194 0.54017937
0.2545279 0.067317262 0.54481059
0.25747901 0.067190036 0.54378092
0.26209477 0.066991039 0.54217035
0.2662684 0.0668111 0.54071414
0.27843025 0.066293001 0.54446954
0.28216204 0.066132091 0.54314798
0.28752154 0.065901004 0.54125005
0.29080319 0.065759517 0.540088
0.30230188 0.065270051 0.54412913
0.3067885 0.065076575 0.54251629
-0.1319035 0.073062748 0.54368299
-0.1287483 0.074128538 0.54072797
-0.086709313 0.074014358 0.54142243
-0.083218254 0.071778379 0.54213119
0.07782153 0.074885875 0.54268539
0.082493678 0.074684575 0.54122669
0.085750148 0.074544281 0.54020989
0.094322152 0.074180543 0.54469419
0.097575322 0.074040368 0.54366493
0.10266361 0.073821127 0.54205507
0.10726447 0.07362289 0.54059941
0.11786027 0.073172003 0.54450053
0.1224392 0.072974682 0.54303223
0.12744895 0.072758809 0.54142582
0.13062212 0.072622076 0.54040837
0.18881559 0.070131637 0.54377294
0.19101 0.070037052 0.54303956
-0.13018893 0.075165682 0.54471314
-0.12664907 0.076282635 0.5421772
-0.12309994 0.077979639 0.54378068
-0.11651859 0.078711949 0.5420689
-0.11223885 0.078544259 0.54343563
-0.10752635 0.078320302 0.54304159
-0.10239526 0.078390129 0.54321688
-0.097501077 0.078394249 0.54324543
-0.092186101 0.077849768 0.54285723
-0.08825317 0.076386124 0.5432961
-0.040718492 0.079965234 0.54394287
-0.037714936 0.079835869 0.54306287
-0.032728747 0.079621114 0.54160208
-0.028758364 0.079450108 0.54043883
-0.020636361 0.079105541 0.54477942
-0.017165419 0.078956053 0.54374993
-0.012228288 0.078743383 0.54228532
-0.0073176823 0.078531876 0.54082876
0.0034368644 0.078073956 0.54443842
0.0073485142 0.077905461 0.54326344
0.012215273 0.077695832 0.54180151
0.016573405 0.077508099 0.54049248
0.027479008 0.077043705 0.54409808
0.032780014 0.076815344 0.54248536
0.03757149 0.076608941 0.54102767
0.04043505 0.076485574 0.54015642
0.048629731 0.076138012 0.54464
0.052445251 0.07597363 0.54346406
0.057192415 0.075769119 0.54200113
0.061443426 0.075585976 0.54069108
0.072653353 0.075108543 0.54429907
0.075007148 0.075007148 0.54356426
-0.15660621 0.084930457 0.54432344
-0.15235008 0.084747195 0.54314893
-0.14758253 0.084541932 0.54183334
-0.14336443 0.084360301 0.54066932
-0.135103 0.084009506 0.54471833
-0.13246809 0.083896041 0.54398263
-0.12774232 0.083692566 0.54266322
-0.1225178 0.083467588 0.54120451
-0.11887635 0.08331079 0.54018784
-0.11148202 0.082997359 0.54452425
-0.10732169 0.082818203 0.54334891
-0.10214555 0.082595311 0.54188651
-0.097510368 0.08239571 0.54057693
-0.08787822 0.08198595 0.54433048
-0.082745172 0.081764899 0.54286277
-0.077639729 0.08154504 0.54140306
-0.074081272 0.081391782 0.5403856
-0.065815166 0.081040896 0.54457784
-0.06226014 0.08088778 0.54354894
-0.057203423 0.080670014 0.54208553
-0.05217386 0.080453411 0.54063004
-0.042727362 0.08005175 0.54453135
-0.27209151 0.089878388 0.54455763
-0.26758343 0.08968433 0.54338187
-0.26253548 0.089467034 0.54206532
-0.25751105 0.089250758 0.54075491
-0.25241649 0.089033782 0.54241741
-0.24731264 0.088816397 0.54406935
-0.2423075 0.088600948 0.54274946
-0.2373257 0.088386491 0.54143578
-0.23346759 0.08822041 0.54041839
-0.22643755 0.087922476 0.54461116
-0.22257815 0.087756328 0.54358202
-0.21763742 0.087543622 0.54226446
-0.21271974 0.087331913 0.54095316
-0.20999745 0.087214716 0.54022717
-0.20224293 0.086885639 0.54426998
-0.19734535 0.08667478 0.54294914
-0.19247057 0.086464912 0.5416345
-0.18815763 0.086279236 0.54047132
-0.18077473 0.085966185 0.54466474
-0.17753972 0.085826896 0.54378223
-0.1727064 0.085618794 0.54246384
-0.16736297 0.085388735 0.54100615
-0.16416954 0.085251242 0.54013503
-0.15874124 0.085022397 0.5449127
-0.31198114 0.091586195 0.54303533
-0.30740058 0.091389045 0.54186642
-0.30226955 0.091168195 0.54055691
-0.29577097 0.090893038 0.54475164
-0.29234913 0.090745747 0.5438689
-0.28780302 0.090550065 0.54269612
-0.28271252 0.090330958 0.54138291
-0.27876884 0.090161204 0.54036558
-0.11338802 -0.046732947 0.54542696
-0.11771393 -0.040879734 0.5460968
-0.10657399 -0.040950112 0.54706889
-0.12051903 -0.037877407 0.54541767
-0.11911726 -0.039377742 0.54575706
0.12346054 -0.037874348 0.54537362
-0.10037816 -0.033020869 0.54646349
-0.099671945 -0.03059295 0.54709929
0.122408 -0.034903485 0.54506731
-0.098123156 -0.027495548 0.54763013
-0.095742702 -0.023688938 0.54719675
-0.093720168 -0.021703675 0.54691368
-0.086748697 -0.016264772 0.54650974
-0.085518666 -0.013952437 0.54599154
-0.083859481 -0.011980422 0.54775554
0.12252164 -0.01082484 0.54557329
-0.083025314 -0.0077727856 0.54714262
0.12290329 -0.0093781631 0.5472728
-0.083778828 -0.0037860184 0.54750013
-0.083771594 0.0044612093 0.54960382
-0.083100855 0.0074130022 0.54780465
-0.082584873 0.011867834 0.54830694
0.12370348 0.011830346 0.5464468
-0.080663674 0.021279374 0.54869384
-0.079298392 0.02364178 0.54610753
-0.079254463 0.025105452 0.54580504
0.12458461 0.032501645 0.54598856
-0.081412897 0.042432249 0.54707766
-0.080307148 0.045819417 0.54626864
-0.077829786 0.052889924 0.54579085
-0.077908777 0.057844654 0.54711801
0.12547106 0.056093246 0.5455606
-0.078860283 0.063064747 0.54734713
0.3098757 0.064949945 0.54972714
0.3127473 0.064826109 0.54867899
0.31561053 0.06470263 0.54763389
-0.079385146 0.066072263 0.54670501
0.19433159 0.069899932 0.54966402
0.19742367 0.069766641 0.54861581
0.20225978 0.069558166 0.54697663
0.20663244 0.069369689 0.54549444
0.21804848 0.06888371 0.54946673
0.22239643 0.068696268 0.54797167
0.22758381 0.068472654 0.54618782
0.23059553 0.068342812 0.54515213
0.24260648 0.067831241 0.54897028
0.24773736 0.067610025 0.54718
0.25198838 0.067426749 0.54569674
0.26373956 0.06692642 0.54967189
0.26712093 0.066780634 0.54847449
0.2721673 0.066563033 0.54668742
0.2759316 0.066400737 0.54535437
0.28784859 0.065893292 0.54932487
0.29242039 0.065696158 0.54768139
0.29737723 0.065482408 0.54589945
0.078813888 0.074848764 0.54960078
0.082598336 0.074685693 0.54840338
0.087306619 0.074482828 0.5469138
0.091522627 0.074301168 0.54557991
0.10303713 0.073810741 0.5492537
0.10723186 0.07362999 0.5479086
0.11233092 0.073410265 0.54627353
0.11556172 0.073271044 0.5452376
0.12446395 0.072893225 0.54980606
0.12768951 0.072754227 0.54875761
0.13273624 0.072536737 0.54711723
0.13547702 0.07241863 0.54622632
-0.12841505 0.076754317 0.54552746
-0.090062879 0.079235651 0.54567546
-0.089107662 0.078769892 0.54585356
-0.036677316 0.079796463 0.54953766
-0.032138109 0.07960096 0.54819119
-0.027120104 0.079384819 0.54670274
-0.023124563 0.079212718 0.5455175
-0.012384014 0.078755453 0.5491907
-0.0074106241 0.078541219 0.54769677
-0.0024642185 0.078328148 0.54621094
0.00098325871 0.078179657 0.54517543
0.0089245411 0.07784301 0.54974294
0.012370664 0.07769455 0.54869443
0.017272295 0.077483393 0.54720324
0.022147354 0.077273384 0.5457201
0.03271139 0.076823801 0.54954553
0.037564356 0.076614723 0.54805005
0.042873643 0.07638599 0.54641378
0.046236418 0.076241121 0.54537749
0.057440411 0.075764 0.54904896
0.062699892 0.075537384 0.54740679
0.0674536 0.075332582 0.54592264
0.070294484 0.075210176 0.5450356
-0.15214163 0.084743179 0.54947549
-0.147855 0.084558599 0.54827863
-0.14252193 0.084328964 0.54678971
-0.13774647 0.084123328 0.54545641
-0.13043144 0.083813354 0.54987782
-0.12724847 0.083676301 0.54897863
-0.12249131 0.08347144 0.5476346
-0.11742694 0.082486071 0.54672652
-0.1140916 0.083109729 0.5452615
-0.10658848 0.082791708 0.54968005
-0.10239953 0.082611308 0.54848242
-0.097187974 0.082386866 0.5469923
-0.092521325 0.082185902 0.54565799
-0.08224459 0.081748471 0.54933256
-0.077595457 0.081548236 0.5479871
-0.072455943 0.081326894 0.54649973
-0.068363629 0.081150644 0.54531533
-0.061001055 0.080838792 0.54988503
-0.057931572 0.080706589 0.54898578
-0.052836187 0.080487132 0.54749298
-0.047768429 0.080268867 0.54600823
-0.044739857 0.080138423 0.54512095
-0.26758081 0.089688897 0.5494141
-0.26247701 0.089469194 0.54806823
-0.25739717 0.08925052 0.54672867
-0.25290304 0.089057058 0.54554355
-0.2459574 0.088762805 0.54981637
-0.24258524 0.08861763 0.54891711
-0.2375472 0.088400736 0.54757369
-0.23253284 0.088184863 0.54623652
-0.22920325 0.088041537 0.54534864
-0.22151923 0.087715529 0.54946864
-0.21763484 0.087548286 0.54842103
-0.21266237 0.087334216 0.54707992
-0.20771323 0.087121151 0.54574525
-0.20497365 0.087003201 0.54500645
-0.19766167 0.086693242 0.54927123
-0.19272952 0.086480893 0.54792583
-0.18782233 0.08626961 0.54658717
-0.18347932 0.08608263 0.54540253
-0.17653617 0.085788585 0.54982322
-0.17273581 0.085624956 0.54877448
-0.16733032 0.085392214 0.54728281
-0.16249 0.085183799 0.54594707
-0.15981065 0.085068434 0.54520774
-0.31595883 0.091761984 0.54995954
-0.31247193 0.091611899 0.54905999
-0.30726054 0.091387585 0.54771566
-0.30265 0.091189131 0.54652619
-0.29863179 0.091016173 0.54548961
-0.29146993 0.09071254 0.54961163
-0.28745186 0.090539582 0.54856366
-0.28230637 0.090318084 0.54722166
-0.27775413 0.090122133 0.54603446
-0.27491823 0.090000071 0.54529488
-0.082934231 -0.0059589134 0.5506264
-0.083728082 -0.0024916157 0.55259222
-0.083827741 0.0024874797 0.55128276
-0.08299204 0.0064591835 0.55101019
-0.082525328 0.012962779 0.5528844
-0.083279893 0.015459142 0.55292135
-0.077997915 0.062101018 0.55083686
0.30905285 0.064985432 0.55002749
0.31925714 0.064552024 0.55482984
0.19255885 0.06997633 0.55026484
0.20352797 0.069509678 0.55445987
0.2075132 0.069337875 0.55308956
0.21279776 0.069110066 0.55127233
0.21586578 0.068977803 0.55021727
0.22744825 0.068484753 0.5542593
0.23224336 0.068278022 0.5525862
0.23744194 0.068053894 0.55077225
0.24919702 0.067553446 0.55482167
0.25264201 0.067404918 0.5536018
0.25778303 0.067183249 0.55178124
0.26161769 0.067017905 0.55042326
0.27354172 0.06651023 0.55446798
0.27735391 0.066345841 0.55309755
0.2824091 0.066127859 0.55128032
0.28534397 0.066001303 0.55022526
0.29785451 0.065468363 0.554115
0.30285147 0.065252878 0.5522911
0.30699125 0.06507434 0.55077994
0.076439992 0.074951038 0.5503518
0.087476887 0.074481249 0.55424321
0.092221767 0.07427679 0.55272168
0.097410657 0.074053191 0.55105782
0.10069826 0.073911525 0.55000365
0.109083 0.073556066 0.55480558
0.11236803 0.07341449 0.55373776
0.11750569 0.073193088 0.55206782
0.12215073 0.072992913 0.55055797
0.13351627 0.072509035 0.55445176
0.13582978 0.072409332 0.55368942
0.19078226 0.070052907 0.55086696
-0.040730737 0.07997106 0.55074
-0.039208278 0.079905473 0.55028838
-0.03102288 0.079558328 0.55478942
-0.027468305 0.079405203 0.55372167
-0.022412632 0.079187438 0.55220306
-0.017384607 0.078970835 0.55069268
-0.0065009887 0.078507505 0.55443573
-0.0024958409 0.078334972 0.55321723
0.0024868175 0.078120328 0.55170143
0.0064540487 0.07794942 0.55049443
0.017494241 0.07747937 0.5542351
0.022431169 0.077266678 0.55271369
0.027341062 0.077055156 0.55120057
0.030275185 0.07692875 0.55029637
0.039029039 0.076557226 0.55479741
0.042448841 0.076409899 0.55372971
0.047312837 0.076200336 0.55221111
0.052150231 0.075991921 0.55070078
0.063506633 0.075508319 0.55444378
0.067357972 0.075342372 0.55322528
0.072149299 0.075135924 0.55170929
0.075012557 0.075012557 0.55080348
-0.15644778 0.084928602 0.55067778
-0.15429196 0.084835768 0.55007583
-0.14651035 0.084505759 0.55442047
-0.14219762 0.084320046 0.55320203
-0.13736707 0.084112033 0.55183733
-0.1330936 0.083928004 0.55062997
-0.12246504 0.083475426 0.55421954
-0.11714406 0.083246276 0.55269814
-0.11237966 0.083041102 0.55133599
-0.10921612 0.08290486 0.55043137
-0.10107279 0.082559347 0.55478156
-0.097383462 0.082400456 0.55371386
-0.0921361 0.082174465 0.55219519
-0.087437615 0.081972122 0.55083549
-0.084836833 0.081860103 0.55008274
-0.076506563 0.081506602 0.55442762
-0.072347626 0.081327476 0.55320919
-0.067173645 0.081104636 0.55169338
-0.063054077 0.080927216 0.55048651
-0.05248636 0.080477394 0.55422705
-0.047357403 0.080256477 0.55270565
-0.043273721 0.080080591 0.5514943
-0.27213904 0.089885116 0.55061603
-0.2624172 0.089471392 0.55420548
-0.25728083 0.089250267 0.55283582
-0.25273678 0.089054652 0.55162412
-0.24877673 0.088884167 0.5505681
-0.2411674 0.088561416 0.55476749
-0.23777285 0.08841528 0.55385196
-0.23270151 0.088196948 0.55248433
-0.22765422 0.087979645 0.55112314
-0.22430287 0.087835364 0.5502193
-0.21651237 0.087504856 0.55441338
-0.21260273 0.087336518 0.55334693
-0.20759812 0.087121047 0.55198175
-0.2026172 0.086906597 0.55062306
-0.192442 0.086473443 0.55421251
-0.18747848 0.08625973 0.55284286
-0.18254034 0.086047113 0.55148011
-0.17871495 0.085882396 0.55042446
-0.17112099 0.085560426 0.55477452
-0.16729689 0.085395768 0.55370682
-0.16239996 0.085184895 0.55233955
-0.15914847 0.085044891 0.55143178
-0.31712413 0.091812149 0.55026019
-0.31121206 0.091562346 0.55476046
-0.30770195 0.091411248 0.55384493
-0.30245799 0.09118551 0.5524773
-0.29723892 0.09096086 0.55111617
-0.29377347 0.090811692 0.55021238
-0.28651261 0.090503871 0.5544064
-0.28246838 0.090329774 0.55333996
-0.27786496 0.090131611 0.55212605
-0.27499732 0.090008162 0.55136985
-0.083627924 0.0035053622 0.55523205
-0.083629154 0.016525522 0.55524021
0.30929294 0.064981773 0.5585236
0.31262782 0.06483794 0.55728734
0.316778 0.06465894 0.55574888
0.19414946 0.069913983 0.5576849
0.19773382 0.069759458 0.55645233
0.201305 0.069605507 0.5552243
0.21288618 0.069112569 0.55934036
0.21732634 0.068921141 0.55779105
0.22262317 0.068692781 0.55594295
0.23481941 0.068173379 0.55991322
0.23745218 0.068059854 0.55898088
0.24225752 0.067852668 0.55727917
0.24660191 0.067665353 0.55574071
0.25939667 0.06712018 0.55955291
0.26284829 0.066971339 0.55831212
0.2675716 0.06676767 0.55661416
0.27098897 0.066620298 0.55538565
0.28351635 0.066086709 0.55934858
0.28776094 0.065903656 0.55779928
0.29282445 0.065685295 0.55595106
0.3067807 0.065090127 0.55945492
0.077908315 0.074893571 0.55731142
0.082705788 0.07468684 0.55577302
0.093898758 0.07421042 0.55974114
0.09724243 0.074066326 0.55865425
0.10247158 0.073840983 0.55695456
0.10672792 0.07365755 0.55557102
0.11855903 0.073153667 0.55938107
0.12232252 0.072991468 0.55814087
0.12747066 0.072769597 0.55644423
0.13119683 0.072609007 0.55521619
-0.040743008 0.079977013 0.5577091
-0.037663549 0.07984437 0.55678421
-0.033571199 0.079668097 0.55555487
-0.022703325 0.079205468 0.55936491
-0.017609466 0.078986034 0.55781519
-0.012543756 0.078767821 0.55627406
-0.009013406 0.078615725 0.55519998
-0.00050486968 0.078254797 0.55978203
0.0025190269 0.078124523 0.55885011
0.0075383983 0.077908278 0.55730331
0.01253006 0.077693239 0.55576491
0.02371983 0.077216834 0.55957747
0.027695 0.077045552 0.55833626
0.032640148 0.076832496 0.55679226
0.03657734 0.076662868 0.55556303
0.047926463 0.076179639 0.55937314
0.052824717 0.075968578 0.55782336
0.057695903 0.075758681 0.55628216
0.061090685 0.075612411 0.55520809
0.072116144 0.075143166 0.5591687
0.075018115 0.075018115 0.55823821
-0.15628558 0.084926695 0.55718213
-0.15247291 0.084762514 0.55610502
-0.1492157 0.084622249 0.55518472
-0.14132038 0.08428742 0.55961066
-0.13752088 0.084123805 0.55852437
-0.13265562 0.08391428 0.55713326
-0.12781541 0.083705828 0.5557493
-0.11705176 0.08324752 0.55940592
-0.1122308 0.083039902 0.55801076
-0.10743293 0.082833268 0.55662221
-0.10371774 0.082673274 0.555547
-0.095453888 0.082322665 0.55997866
-0.092270806 0.082185566 0.55904615
-0.087513819 0.081980683 0.55765247
-0.08278136 0.081776857 0.55626595
-0.07911545 0.081618965 0.55519193
-0.070661217 0.081260234 0.55961823
-0.067520857 0.081124969 0.55868673
-0.06282945 0.080922894 0.55729514
-0.057643633 0.080699541 0.55575687
-0.046935406 0.080243759 0.55956918
-0.043318722 0.080087967 0.55848289
-0.27218768 0.089892015 0.55681092
-0.26757815 0.089693569 0.55558175
-0.26004317 0.089374065 0.55985802
-0.25716177 0.089250013 0.55908102
-0.25256681 0.089052185 0.55784172
-0.24742222 0.088830709 0.5564543
-0.24343711 0.088659137 0.55537963
-0.23629034 0.088356376 0.55980855
-0.23230508 0.088184796 0.55872142
-0.22720195 0.087965086 0.55732942
-0.22268754 0.087770715 0.55609792
-0.2193142 0.087625489 0.55517775
-0.21141458 0.087290347 0.55944806
-0.20747942 0.08712092 0.55836219
-0.20244229 0.086904027 0.55697215
-0.19742928 0.086688191 0.55558878
-0.18768361 0.086273603 0.55939877
-0.18268657 0.086058438 0.5580036
-0.17771344 0.085844293 0.55661511
-0.17386253 0.085678466 0.55553991
-0.16560736 0.085328117 0.55981576
-0.16230781 0.085186027 0.55888361
-0.15901801 0.085044369 0.55795419
-0.320631 0.091967784 0.55721694
-0.31708977 0.091815352 0.55629331
-0.31355897 0.091663361 0.55537248
-0.30638173 0.091359191 0.55964595
-0.30226079 0.091181785 0.55855918
-0.29757023 0.090979874 0.55732226
-0.29290041 0.090778857 0.55609083
-0.28941092 0.090628631 0.55517066
-0.28205058 0.090316616 0.55944103
-0.27739829 0.090116322 0.55820036
0.31798083 0.064613938 0.56410789
0.32216591 0.064433411 0.56253183
0.1989613 0.069712915 0.56419903
0.20257732 0.069557026 0.56293732
0.20752352 0.069343776 0.56121153
0.21065706 0.069208674 0.56011814
0.22241056 0.06870842 0.56430751
0.22730775 0.068497263 0.56257331
0.2321759 0.068287358 0.56084931
0.24498969 0.067741431 0.56473202
0.247628 0.067627676 0.56378365
0.25244325 0.067420028 0.56205261
0.25679639 0.067232311 0.56048769
0.26890445 0.066716865 0.56468207
0.2723664 0.06656757 0.56341845
0.27753225 0.066344783 0.5615328
0.28095827 0.066197038 0.56028235
0.29324165 0.065674067 0.56447399
0.29749784 0.065490499 0.56289619
0.30257487 0.065271527 0.56101406
0.078928925 0.074855536 0.56460708
0.082816198 0.074688017 0.56334352
0.087651767 0.07447964 0.56177175
0.091501556 0.07431373 0.56052035
0.10333344 0.07380987 0.56439883
0.10716467 0.07364475 0.56313622
0.1124052 0.073418885 0.56140912
0.11619811 0.07325542 0.56015915
0.12771924 0.072764993 0.56419098
0.1324366 0.072561666 0.56261438
0.13619222 0.072399788 0.56135935
-0.040235005 0.079960704 0.56469852
-0.037117887 0.079826437 0.56375027
-0.032459617 0.079625748 0.56233299
-0.02782557 0.079426132 0.56092322
-0.016296428 0.078935124 0.56464863
-0.012707673 0.07878051 0.5635426
-0.0076037729 0.078560635 0.56196976
-0.0030341395 0.078363761 0.56056148
0.0081444252 0.077887893 0.56444055
0.012693617 0.077691898 0.56302011
0.017721966 0.077475235 0.56145012
0.02122613 0.077324271 0.56035602
0.032567829 0.076841399 0.56423235
0.037053909 0.076648109 0.56281298
0.042506348 0.076413177 0.56108797
0.054506782 0.07590197 0.56481528
0.057465415 0.075774483 0.56386667
0.062376268 0.075562865 0.56229186
0.067259774 0.075352423 0.56072599
-0.15611953 0.08492475 0.56384212
-0.1522617 0.084758617 0.56273901
-0.14732373 0.084545955 0.56132716
-0.14349878 0.084381238 0.56023359
-0.13603243 0.084064983 0.56489909
-0.13275325 0.08392375 0.56395006
-0.12731037 0.083689347 0.56237483
-0.12243727 0.083479464 0.56096452
-0.11974002 0.083363302 0.56018394
-0.11099564 0.082992047 0.56453198
-0.10722216 0.08282952 0.56342638
-0.10239043 0.08262141 0.56201082
-0.098116286 0.082437322 0.56075859
-0.087057948 0.081966482 0.56448203
-0.082800157 0.081783079 0.56321901
-0.077503666 0.081554964 0.56164795
-0.073286913 0.081373326 0.56039715
-0.06259843 0.080918446 0.56427413
-0.057348497 0.080692306 0.56269711
-0.052127827 0.080467425 0.56112891
-0.049008213 0.080333047 0.56019187
-0.27223742 0.089899056 0.56314671
-0.26757544 0.089698352 0.56188941
-0.26293424 0.089498535 0.56063771
-0.25529405 0.089174576 0.56499249
-0.25239292 0.089049667 0.56420112
-0.24776664 0.088850491 0.56293917
-0.24258724 0.088627495 0.5615263
-0.23857525 0.088454753 0.56043184
-0.23074944 0.08812286 0.56478369
-0.22731188 0.087974846 0.56383502
-0.22217467 0.087753646 0.56241739
-0.21763036 0.087557979 0.56116337
-0.21423477 0.087411769 0.56022632
-0.20622332 0.087071918 0.56457502
-0.20226237 0.086901367 0.56346923
-0.19775406 0.086707234 0.56221044
-0.1927067 0.086489901 0.56080121
-0.18227541 0.086045876 0.56452483
-0.17724629 0.085829318 0.56310403
-0.17224146 0.085613802 0.56169003
-0.16836619 0.085446924 0.56059521
-0.15888441 0.085043818 0.56463265
-0.32542774 0.092179067 0.5646683
-0.32243013 0.092050038 0.56387788
-0.3176499 0.091844253 0.5626173
-0.31289101 0.0916394 0.56136239
-0.30933511 0.091486312 0.56042469
-0.30146506 0.0911524 0.56461805
-0.29790908 0.09099932 0.5636698
-0.29259694 0.090770625 0.56225324
-0.28731048 0.090543047 0.56084353
-0.2843844 0.090417072 0.56006324
-0.27692026 0.090100661 0.56440961
0.30954084 0.064977996 0.56728625
0.31250456 0.064850159 0.5661701
0.3154594 0.064722694 0.56505734
0.32726693 0.064220428 0.56964308
0.20844446 0.069310598 0.56925327
0.21252403 0.069134697 0.56780857
0.2174821 0.068920918 0.56605273
0.23255368 0.068277694 0.5692026
0.23746182 0.068066046 0.56743819
0.24234052 0.067855671 0.56568432
0.25445297 0.067340083 0.5699569
0.25753957 0.067206979 0.56883037
0.26280499 0.066979907 0.56690842
0.26673183 0.066810556 0.56547505
0.27945799 0.066268563 0.56958365
0.28249371 0.066137627 0.56845832
0.28724083 0.065932892 0.56669855
0.29067644 0.0657847 0.5654248
0.30357504 0.065235324 0.56953287
0.30698901 0.065088071 0.5682472
0.076490298 0.074960627 0.56539965
0.088320553 0.074456893 0.56934643
0.092705667 0.074267909 0.56790125
0.097552456 0.07405901 0.56630391
0.10092995 0.073913455 0.56519091
0.1124444 0.073423363 0.5692957
0.11724739 0.073216341 0.56769061
0.12249901 0.072989985 0.56593555
0.13656478 0.072389975 0.56924474
-0.031842679 0.079604879 0.56943959
-0.027151784 0.079402782 0.56799394
-0.022483777 0.079201683 0.56655538
-0.018869417 0.079045959 0.56544149
-0.0071881693 0.078548491 0.56922776
-0.0025615848 0.078349151 0.56778318
0.0025520809 0.07812883 0.56618655
0.0056076404 0.077997178 0.56523252
0.014903793 0.077602513 0.56982106
0.017955696 0.077471003 0.56885546
0.022516353 0.077274501 0.56741256
0.027053079 0.07707902 0.56597722
0.030066242 0.076949194 0.5650239
0.03905458 0.076567821 0.56977016
0.042566422 0.076416492 0.56864411
0.047560722 0.076201282 0.56704259
0.052032027 0.076008618 0.56560886
0.06369701 0.075511947 0.56955814
0.067158863 0.075362764 0.56843281
0.072082087 0.075150602 0.5668326
0.075023837 0.075023837 0.56587642
-0.1514885 0.084730633 0.56937212
-0.14760204 0.084563255 0.56824732
-0.14262769 0.084349014 0.56680775
-0.1382259 0.084159456 0.56553388
-0.127342 0.083696082 0.56932098
-0.12350287 0.083530731 0.56819624
-0.11750142 0.083272241 0.56643796
-0.11370107 0.083108567 0.5653246
-0.090799645 0.082127646 0.56559187
-0.089194007 0.082058489 0.56511563
-0.080669224 0.08169686 0.56970221
-0.077456042 0.081558451 0.56873703
-0.072654359 0.081351608 0.56729466
-0.067877874 0.08114586 0.56585991
-0.056514937 0.080662027 0.56965137
-0.05281499 0.080502629 0.56852573
-0.047553156 0.080275968 0.56692493
-0.04284234 0.080073029 0.5654918
-0.27169725 0.089880817 0.56946707
-0.26757264 0.089703232 0.56834197
-0.2628783 0.089501113 0.56706136
-0.25820506 0.089299917 0.5657866
-0.24753596 0.088845633 0.56941599
-0.24287799 0.088645078 0.56813061
-0.23766331 0.08842054 0.56669152
-0.2330489 0.088221855 0.56541818
-0.2228021 0.087785795 0.56920379
-0.21762857 0.087563023 0.56775939
-0.21248025 0.087341338 0.56632197
-0.20906217 0.08719416 0.5653677
-0.20093568 0.086849436 0.56979674
-0.19751814 0.086702257 0.56883115
