# .PCD v0.7 - Point Cloud Data file format
VERSION 0.7
FIELDS x y z
SIZE 4 4 4
TYPE F F F
COUNT 1 1 1
WIDTH 1288
HEIGHT 1
VIEWPOINT 0 0 0 1 0 0 0
POINTS 1288
DATA ascii
-0.11878154 -0.094746962 -0.32884589
-0.11789055 -0.094744161 -0.32883966
-0.11670262 -0.094740413 -0.32883132
-0.11581172 -0.094737612 -0.32882509
-0.11492083 -0.094734803 -0.32881883
-0.11373301 -0.094731055 -0.32881051
-0.11284218 -0.094728254 -0.32880425
-0.11195137 -0.094725445 -0.328798
-0.11076368 -0.094721705 -0.32878968
-0.10987294 -0.094718888 -0.32878342
-0.10898221 -0.09471608 -0.32877719
-0.10779464 -0.094712339 -0.32876885
-0.10690398 -0.094709538 -0.32876262
-0.10601334 -0.094706722 -0.32875636
-0.10482586 -0.094702974 -0.32874805
-0.10363846 -0.094699241 -0.3287397
-0.10274793 -0.094696432 -0.32873347
-0.10185741 -0.094693623 -0.32872722
-0.10067011 -0.094689876 -0.32871887
-0.099779651 -0.094687074 -0.32871264
-0.098889232 -0.094684266 -0.32870638
-0.097702049 -0.094680525 -0.32869807
-0.096811697 -0.094677716 -0.32869181
-0.09592136 -0.094674908 -0.32868558
-0.094734289 -0.094671167 -0.32867724
-0.093844011 -0.094668366 -0.32867104
-0.092953764 -0.094665565 -0.32866478
-0.091766819 -0.094661824 -0.32865646
-0.090876639 -0.094659016 -0.32865021
-0.089986473 -0.094656199 -0.32864398
-0.088799626 -0.094652466 -0.32863563
-0.087909527 -0.094649665 -0.3286294
-0.087019451 -0.094646849 -0.32862315
-0.08583273 -0.094643123 -0.32861486
-0.084646069 -0.094639376 -0.32860652
-0.083756082 -0.094636574 -0.32860029
-0.08286614 -0.094633766 -0.32859403
-0.081679568 -0.094630025 -0.32858571
-0.08078967 -0.094627216 -0.32857946
-0.07989981 -0.094624415 -0.32857323
-0.07871338 -0.094620675 -0.32856491
-0.077823579 -0.094617873 -0.32855868
-0.076933801 -0.094615057 -0.32855242
-0.075747468 -0.094611324 -0.32854411
-0.074857742 -0.094608516 -0.32853785
-0.07396806 -0.094605722 -0.32853165
-0.072781861 -0.094601981 -0.32852331
-0.071892224 -0.094599172 -0.32851708
-0.071002625 -0.094596371 -0.32851082
-0.06981653 -0.094592623 -0.32850251
-0.068630472 -0.094588898 -0.32849419
-0.067740977 -0.094586082 -0.32848796
-0.066851497 -0.09458328 -0.3284817
-0.065665565 -0.094579548 -0.32847342
-0.064776145 -0.094576746 -0.32846716
-0.063886747 -0.094573945 -0.32846093
-0.06270092 -0.094570197 -0.32845259
-0.0618116 -0.094567403 -0.32844639
-0.060922291 -0.094564594 -0.32844013
-0.059736595 -0.094560862 -0.32843181
-0.058847345 -0.094558053 -0.32842562
-0.05795813 -0.094555251 -0.32841936
-0.056772545 -0.094551511 -0.32841104
-0.055883378 -0.09454871 -0.32840478
-0.054994252 -0.094545908 -0.32839859
-0.053808786 -0.094542168 -0.32839024
-0.052623358 -0.094538435 -0.32838196
-0.051734325 -0.094535634 -0.3283757
-0.050845321 -0.094532833 -0.32836947
-0.049660008 -0.0945291 -0.32836115
-0.048771057 -0.094526298 -0.32835492
-0.04788214 -0.094523497 -0.3283487
-0.04669695 -0.094519757 -0.32834038
-0.045808081 -0.094516955 -0.32833415
-0.044919252 -0.094514146 -0.32832789
-0.043734178 -0.094510421 -0.32831961
-0.042845394 -0.094507612 -0.32831335
-0.041956656 -0.094504818 -0.32830715
-0.040771689 -0.094501086 -0.32829884
-0.039882995 -0.094498277 -0.32829258
-0.038994342 -0.094495483 -0.32828638
-0.037809495 -0.094491743 -0.32827803
-0.036624704 -0.09448801 -0.32826975
-0.035736136 -0.094485201 -0.32826352
-0.034847595 -0.094482407 -0.32825726
-0.033662915 -0.094478674 -0.32824898
-0.032774433 -0.094475865 -0.32824272
-0.031885978 -0.094473071 -0.32823652
-0.030701414 -0.094469339 -0.32822821
-0.029813025 -0.094466537 -0.32822198
-0.028924655 -0.094463736 -0.32821575
-0.027740208 -0.094460003 -0.32820743
-0.026851902 -0.094457202 -0.3282012
-0.025963621 -0.094454408 -0.32819498
-0.02477929 -0.094450668 -0.32818666
-0.023891069 -0.094447874 -0.32818046
-0.023002394 -0.094740979 -0.32817402
-0.021818181 -0.094737239 -0.32816577
-0.02063401 -0.094733492 -0.32815745
-0.019745909 -0.094730698 -0.3281512
-0.01885784 -0.094727889 -0.328145
-0.017673787 -0.094724149 -0.32813665
-0.016785776 -0.094721355 -0.32813045
-0.015897794 -0.094718546 -0.32812423
-0.014713855 -0.094714813 -0.32811594
-0.013825932 -0.094711997 -0.32810971
-0.012938036 -0.094709195 -0.32810345
-0.011754213 -0.094705462 -0.32809517
-0.010866374 -0.094702661 -0.32808897
-0.0099785645 -0.09469986 -0.32808271
-0.0087948581 -0.094696119 -0.32807443
-0.0079071075 -0.094693318 -0.3280682
-0.0070193852 -0.094690509 -0.32806197
-0.0058357944 -0.094686769 -0.32805365
-0.0046522496 -0.094683044 -0.32804537
-0.0037646198 -0.094680242 -0.32803914
-0.0028770196 -0.094677441 -0.32803294
-0.0016935903 -0.094673708 -0.3280246
-0.00080604758 -0.094670892 -0.3280184
8.1466162e-05 -0.094668098 -0.32801217
0.0012647796 -0.094664365 -0.32800388
0.0021522355 -0.094661564 -0.32799765
-0.18180881 -0.095835671 -0.32928744
-0.18091598 -0.095832847 -0.32928118
-0.17972557 -0.095829077 -0.32927281
-0.17883278 -0.095826253 -0.32926655
-0.17794004 -0.095823415 -0.32926032
-0.17674978 -0.095819652 -0.32925197
-0.17585707 -0.095816821 -0.32924566
-0.17496441 -0.095813997 -0.32923946
-0.17377424 -0.095810235 -0.32923108
-0.17288163 -0.095807403 -0.32922482
-0.17198908 -0.09580458 -0.32921857
-0.17079905 -0.09580081 -0.32921022
-0.16990654 -0.095797986 -0.32920393
-0.16901407 -0.095795155 -0.3291977
-0.16782412 -0.095791392 -0.32918936
-0.16663423 -0.095787622 -0.32918102
-0.16574185 -0.095784798 -0.32917479
-0.16484949 -0.09578196 -0.3291685
-0.16365971 -0.095778197 -0.32916015
-0.16276741 -0.095775381 -0.3291539
-0.16187513 -0.09577255 -0.32914764
-0.16068546 -0.095768787 -0.32913929
-0.15979327 -0.095765956 -0.32913306
-0.15890111 -0.095763125 -0.32912675
-0.15771158 -0.095759362 -0.32911843
-0.15681943 -0.095756538 -0.32911217
-0.15592735 -0.095753714 -0.32910591
-0.1547379 -0.095749944 -0.3290976
-0.15384588 -0.095747121 -0.32909134
-0.15295388 -0.095744297 -0.32908508
-0.15176456 -0.095740534 -0.32907674
-0.15087262 -0.095737703 -0.32907045
-0.14998068 -0.095734887 -0.32906425
-0.14879149 -0.095731109 -0.32905588
-0.14789966 -0.095728293 -0.32904962
-0.14700784 -0.095725462 -0.32904336
-0.14581876 -0.095721699 -0.32903504
-0.14462973 -0.095717937 -0.32902673
-0.14373799 -0.095715113 -0.32902047
-0.14284626 -0.095712297 -0.32901418
-0.14165735 -0.095708519 -0.32900584
-0.1407657 -0.095705695 -0.32899958
-0.13987409 -0.095702872 -0.32899332
-0.13868529 -0.095699109 -0.32898501
-0.13779372 -0.095696293 -0.32897875
-0.13690217 -0.095693462 -0.32897252
-0.13571353 -0.095689699 -0.32896417
-0.13482206 -0.095686875 -0.32895792
-0.13393061 -0.095684052 -0.32895169
-0.13274205 -0.095680296 -0.32894334
-0.13185064 -0.095677473 -0.32893711
-0.13095929 -0.095674649 -0.32893082
-0.12977083 -0.095670886 -0.32892248
-0.12887953 -0.095668063 -0.32891622
-0.12798828 -0.095665239 -0.32890999
-0.12679994 -0.095661476 -0.32890168
-0.12590872 -0.095658652 -0.32889539
-0.12501752 -0.095655836 -0.32888916
-0.12382933 -0.095652074 -0.32888085
-0.12264116 -0.095648311 -0.32887253
-0.12175006 -0.095645487 -0.32886624
-0.120859 -0.095642671 -0.32885998
-0.11967096 -0.095638894 -0.32885167
-0.11877995 -0.09563607 -0.32884541
-0.11788896 -0.095633253 -0.32883918
-0.11670103 -0.095629491 -0.32883084
-0.11581013 -0.095626675 -0.32882461
-0.11491925 -0.095623843 -0.32881835
-0.11373143 -0.095620088 -0.32881001
-0.1128406 -0.095617272 -0.32880378
-0.1119498 -0.095614448 -0.32879752
-0.1107621 -0.095610686 -0.3287892
-0.10987134 -0.095607862 -0.32878295
-0.10898064 -0.095605053 -0.32877672
-0.10779306 -0.095601283 -0.32876834
-0.10690238 -0.095598467 -0.32876214
-0.10601176 -0.095595643 -0.32875589
-0.10482431 -0.09559188 -0.32874754
-0.10363689 -0.095588125 -0.32873923
-0.10274635 -0.095585302 -0.32873297
-0.10185584 -0.095582478 -0.32872674
-0.10066855 -0.095578715 -0.32871839
-0.099778093 -0.095575899 -0.32871217
-0.098887667 -0.095573083 -0.32870591
-0.097700499 -0.095569335 -0.32869759
-0.09681014 -0.095566504 -0.32869133
-0.095919803 -0.095563687 -0.3286851
-0.094732739 -0.095559932 -0.32867676
-0.093842462 -0.095557116 -0.32867053
-0.092952207 -0.095554292 -0.32866427
-0.091765262 -0.09555053 -0.32865599
-0.090875082 -0.095547713 -0.3286497
-0.089984924 -0.09554489 -0.32864344
-0.088798083 -0.095541134 -0.32863516
-0.087907977 -0.095538318 -0.32862893
-0.087017901 -0.095535502 -0.32862267
-0.085831195 -0.095531747 -0.32861438
-0.084644526 -0.095527984 -0.32860604
-0.083754547 -0.095525168 -0.32859981
-0.082864597 -0.095522337 -0.32859355
-0.081678033 -0.095518582 -0.32858524
-0.080788136 -0.095515765 -0.32857898
-0.079898275 -0.095512949 -0.32857272
-0.078711852 -0.095509194 -0.32856441
-0.077822044 -0.095506378 -0.32855818
-0.076932274 -0.095503554 -0.32855192
-0.07574594 -0.095499806 -0.32854363
-0.074856222 -0.09549699 -0.3285374
-0.073966533 -0.095494173 -0.32853118
-0.072780333 -0.095490411 -0.3285228
-0.071890704 -0.095487595 -0.3285166
-0.071001112 -0.095484778 -0.32851031
-0.069815002 -0.095481016 -0.32850203
-0.068628959 -0.095477268 -0.32849371
-0.067739472 -0.095474444 -0.32848746
-0.066849984 -0.095471628 -0.32848123
-0.065664053 -0.09546788 -0.32847294
-0.064774632 -0.095465064 -0.32846668
-0.063885234 -0.095462248 -0.32846045
-0.062699415 -0.095458493 -0.32845211
-0.061810095 -0.095455676 -0.32844588
-0.060920786 -0.09545286 -0.32843962
-0.059735093 -0.095449112 -0.32843131
-0.058845848 -0.095446289 -0.32842511
-0.057956629 -0.095443472 -0.32841888
-0.056771051 -0.09543971 -0.32841057
-0.055881891 -0.095436901 -0.32840431
-0.054992754 -0.095434077 -0.32839811
-0.053807292 -0.095430322 -0.32838973
-0.052621871 -0.095426574 -0.32838148
-0.051732827 -0.095423758 -0.32837522
-0.050843824 -0.095420942 -0.32836899
-0.049658522 -0.095417194 -0.32836068
-0.048769567 -0.095414378 -0.32835442
-0.047880657 -0.095411561 -0.32834822
-0.046695467 -0.095407806 -0.32833987
-0.045806594 -0.09540499 -0.32833368
-0.044917773 -0.095402174 -0.32832742
-0.043732699 -0.095398419 -0.3283191
-0.042843916 -0.09539561 -0.32831284
-0.04195518 -0.095392801 -0.32830667
-0.040770218 -0.095389046 -0.32829836
-0.039881524 -0.095386229 -0.3282921
-0.038992871 -0.095383421 -0.32828587
-0.037808027 -0.095379665 -0.32827753
-0.036623232 -0.09537591 -0.32826924
-0.035734665 -0.095373094 -0.32826301
-0.034846131 -0.095370285 -0.32825679
-0.033661447 -0.09536653 -0.32824847
-0.032772969 -0.095363714 -0.32824227
-0.031884521 -0.095360897 -0.32823604
-0.030699957 -0.09535715 -0.3282277
-0.029811565 -0.095354334 -0.32822147
-0.0289232 -0.095351525 -0.32821524
-0.027738754 -0.09534777 -0.32820696
-0.026850451 -0.095344961 -0.32820073
-0.02596217 -0.095342152 -0.32819447
-0.024777839 -0.095338397 -0.32818618
-0.02388962 -0.095335595 -0.32817999
-0.023000948 -0.095628679 -0.32817355
-0.021816732 -0.095624924 -0.32816526
-0.020632567 -0.095621161 -0.32815695
-0.019744467 -0.095618345 -0.32815072
-0.018856401 -0.095615536 -0.32814452
-0.017672349 -0.095611781 -0.32813621
-0.016784336 -0.095608965 -0.32812998
-0.015896358 -0.095606148 -0.32812372
-0.014712419 -0.095602386 -0.32811543
-0.013824496 -0.095599577 -0.32810923
-0.012936602 -0.095596753 -0.32810298
-0.011752782 -0.095592998 -0.32809469
-0.010864944 -0.095590189 -0.32808846
-0.0099771367 -0.095587373 -0.32808223
-0.0087934313 -0.095583618 -0.32807392
-0.0079056816 -0.095580801 -0.32806769
-0.0070179612 -0.095577985 -0.32806149
-0.0058343722 -0.09557423 -0.32805318
-0.0046508289 -0.095570475 -0.32804486
-0.0037632007 -0.095567666 -0.32803866
-0.0028756019 -0.09556485 -0.32803243
-0.0016921746 -0.095561095 -0.32802412
-0.00080463319 -0.095558278 -0.32801792
8.2879502e-05 -0.095555454 -0.32801166
0.001266191 -0.095551714 -0.32800338
0.0021536457 -0.095548898 -0.32799718
-0.18180712 -0.096725702 -0.32928693
-0.18091427 -0.096722864 -0.32928067
-0.17972389 -0.096719079 -0.32927233
-0.1788311 -0.09671624 -0.32926607
-0.17793836 -0.096713386 -0.32925981
-0.17674807 -0.096709609 -0.32925147
-0.1758554 -0.09670677 -0.32924521
-0.17496274 -0.096703924 -0.32923892
-0.17377257 -0.096700139 -0.32923061
-0.17287996 -0.096697301 -0.32922432
-0.17198741 -0.096694462 -0.32921809
-0.17079736 -0.096690677 -0.32920972
-0.16990487 -0.096687838 -0.32920346
-0.1690124 -0.096685 -0.32919723
-0.16782245 -0.096681215 -0.32918888
-0.16663256 -0.096677423 -0.32918051
-0.16574018 -0.096674591 -0.32917428
-0.16484782 -0.096671753 -0.32916799
-0.16355854 -0.096865363 -0.32915884
-0.16276519 -0.096961707 -0.32915324
-0.16187291 -0.096958868 -0.32914698
-0.16068326 -0.096955068 -0.32913864
-0.1597911 -0.09695223 -0.32913241
-0.15889892 -0.096949384 -0.32912615
-0.15770936 -0.096945591 -0.32911777
-0.15681724 -0.096942753 -0.32911152
-0.15592514 -0.096939921 -0.32910526
-0.15473571 -0.096936114 -0.32909694
-0.15384369 -0.096933283 -0.32909068
-0.15295167 -0.096930444 -0.3290844
-0.15176238 -0.096926652 -0.32907608
-0.15087041 -0.096923806 -0.32906982
-0.14997849 -0.096920967 -0.32906353
-0.1487893 -0.096917167 -0.32905522
-0.14789748 -0.096914336 -0.32904896
-0.14700565 -0.096911497 -0.32904273
-0.14581658 -0.096907698 -0.32903439
-0.14462754 -0.096903913 -0.32902604
-0.14373581 -0.096901074 -0.32901981
-0.14284411 -0.096898235 -0.32901356
-0.14165519 -0.096894436 -0.32900518
-0.14076355 -0.096891604 -0.32899892
-0.13987191 -0.096888758 -0.32899269
-0.13868313 -0.096884973 -0.32898438
-0.13779156 -0.096882135 -0.32897809
-0.13690004 -0.096879296 -0.32897186
-0.13571137 -0.096875504 -0.32896349
-0.1348199 -0.096872658 -0.32895726
-0.13392845 -0.096869826 -0.328951
-0.13273989 -0.096866041 -0.32894266
-0.1318485 -0.096863203 -0.32893646
-0.13095714 -0.096860357 -0.32893017
-0.1297687 -0.096856572 -0.32892182
-0.12887739 -0.096853733 -0.3289156
-0.12798612 -0.096850887 -0.32890931
-0.1267978 -0.096847109 -0.32890099
-0.12590656 -0.096844263 -0.32889473
-0.12501541 -0.096841432 -0.32888848
-0.1238272 -0.09683764 -0.32888016
-0.12263904 -0.096833855 -0.32887182
-0.12174794 -0.096831009 -0.32886559
-0.12085688 -0.096828178 -0.32885933
-0.11966885 -0.096824393 -0.32885101
-0.11877785 -0.096821554 -0.32884476
-0.11788686 -0.096818715 -0.32883853
-0.11669893 -0.096814923 -0.32883018
-0.11580801 -0.096812092 -0.32882392
-0.11491713 -0.096809238 -0.3288177
-0.1137293 -0.096805461 -0.32880935
-0.11283848 -0.096802622 -0.32880312
-0.11194768 -0.096799783 -0.32879686
-0.11075998 -0.096796006 -0.32878855
-0.10986925 -0.09679316 -0.32878229
-0.10897853 -0.096790336 -0.32877603
-0.10779095 -0.096786544 -0.32876772
-0.1069003 -0.096783705 -0.32876146
-0.10600966 -0.096780859 -0.32875523
-0.10482221 -0.096777081 -0.32874689
-0.1036348 -0.096773304 -0.32873857
-0.10274426 -0.096770465 -0.32873231
-0.10185377 -0.096767634 -0.32872608
-0.10066646 -0.096763849 -0.32871774
-0.099776022 -0.096761011 -0.32871151
-0.098885596 -0.096758164 -0.32870525
-0.097698413 -0.096754387 -0.32869694
-0.096808068 -0.096751548 -0.32869068
-0.095917732 -0.096748717 -0.32868445
-0.094730653 -0.096744932 -0.3286761
-0.093840383 -0.096742094 -0.32866988
-0.092950135 -0.096739262 -0.32866362
-0.091763183 -0.09673547 -0.3286553
-0.090873018 -0.096732639 -0.32864904
-0.08998286 -0.0967298 -0.32864282
-0.08879602 -0.096726023 -0.3286345
-0.087905921 -0.096723184 -0.32862827
-0.087015852 -0.096720353 -0.32862204
-0.085829131 -0.096716575 -0.3286137
-0.08464247 -0.096712783 -0.32860538
-0.083752483 -0.096709952 -0.32859913
-0.082862534 -0.096707106 -0.3285929
-0.081675991 -0.096703343 -0.32858455
-0.080786102 -0.096700504 -0.32857832
-0.079896241 -0.096697658 -0.32857206
-0.078709811 -0.096693881 -0.32856378
-0.077819996 -0.09669105 -0.32855749
-0.076930225 -0.096688211 -0.32855129
-0.075743906 -0.096684441 -0.32854298
-0.074854188 -0.096681602 -0.32853675
-0.073964491 -0.096678764 -0.32853049
-0.072778307 -0.096674986 -0.32852218
-0.07188867 -0.096672155 -0.32851592
-0.070999078 -0.096669324 -0.32850969
-0.069812976 -0.096665539 -0.32850137
-0.068626933 -0.096661761 -0.32849303
-0.067737453 -0.096658923 -0.32848683
-0.066847973 -0.096656092 -0.3284806
-0.065662026 -0.096652314 -0.32847226
-0.064772613 -0.096649475 -0.32846603
-0.06388323 -0.096646644 -0.3284598
-0.062697411 -0.096642867 -0.32845145
-0.061808079 -0.096640028 -0.32844523
-0.060918782 -0.096637204 -0.328439
-0.059733089 -0.096633412 -0.32843071
-0.05884384 -0.096630588 -0.32842445
-0.057954624 -0.09662775 -0.32841823
-0.056769051 -0.096623972 -0.32840991
-0.055879891 -0.096621148 -0.32840365
-0.054990761 -0.09661831 -0.32839739
-0.053805303 -0.096614525 -0.32838914
-0.052619878 -0.096610755 -0.32838079
-0.051730838 -0.096607924 -0.32837456
-0.050841846 -0.096605092 -0.32836834
-0.04965654 -0.096601315 -0.32836002
-0.048767585 -0.096598484 -0.32835376
-0.047878675 -0.096595652 -0.32834756
-0.046693485 -0.096591868 -0.32833925
-0.04580462 -0.096589036 -0.32833302
-0.044915799 -0.096586205 -0.32832676
-0.043730725 -0.096582428 -0.32831845
-0.042841945 -0.096579604 -0.32831225
-0.041953206 -0.096576765 -0.32830602
-0.040768251 -0.096572995 -0.32829767
-0.03987956 -0.096570164 -0.32829145
-0.038990911 -0.096567325 -0.32828522
-0.037806071 -0.096563563 -0.32827693
-0.036621269 -0.096559778 -0.32826862
-0.035732716 -0.096556947 -0.32826236
-0.034844175 -0.096554115 -0.32825613
-0.033659495 -0.096550338 -0.32824785
-0.032771017 -0.096547507 -0.32824162
-0.031882569 -0.096544676 -0.32823536
-0.030698009 -0.096540898 -0.32822707
-0.029809622 -0.096538067 -0.32822081
-0.028921258 -0.096535236 -0.32821462
-0.027736815 -0.096531473 -0.3282063
-0.02684851 -0.096528642 -0.32820007
-0.025960233 -0.096525818 -0.32819381
-0.024775907 -0.096522033 -0.32818553
-0.023887688 -0.096519209 -0.3281793
-0.022999497 -0.096516386 -0.3281731
-0.021815289 -0.096512601 -0.32816479
-0.020631123 -0.096508831 -0.32815647
-0.019743023 -0.096506007 -0.32815024
-0.018854957 -0.096503176 -0.32814398
-0.017670911 -0.096499398 -0.32813573
-0.016782897 -0.096496567 -0.3281295
-0.01589492 -0.096493743 -0.32812324
-0.014710985 -0.096489966 -0.32811496
-0.013823063 -0.096487142 -0.32810876
-0.012935168 -0.096484311 -0.3281025
-0.01175135 -0.096480533 -0.32809418
-0.010863515 -0.09647771 -0.32808796
-0.0099757081 -0.096474878 -0.32808176
-0.0087920045 -0.096471108 -0.32807344
-0.0079042567 -0.096468277 -0.32806718
-0.0070165377 -0.096465454 -0.32806101
-0.0058329501 -0.096461676 -0.3280527
-0.0046494091 -0.096457906 -0.32804438
-0.0037617818 -0.096455082 -0.32803819
-0.0028741839 -0.096452259 -0.32803196
-0.0016907584 -0.096448481 -0.32802361
-0.00080321846 -0.09644565 -0.32801744
8.4292784e-05 -0.096442819 -0.32801118
0.0012676024 -0.096439056 -0.32800287
-0.18240064 -0.097617626 -0.3292906
-0.18180542 -0.097615726 -0.32928643
-0.1809126 -0.09761288 -0.32928017
-0.1797222 -0.097609065 -0.32927185
-0.17882943 -0.097606219 -0.32926559
-0.17793669 -0.097603366 -0.32925931
-0.17674638 -0.097599551 -0.32925096
-0.17585371 -0.097596712 -0.3292447
-0.17496106 -0.097593851 -0.32923844
-0.17377089 -0.097590044 -0.3292301
-0.1728783 -0.097587198 -0.32922384
-0.17198573 -0.097584344 -0.32921755
-0.17079569 -0.097580537 -0.32920924
-0.16990319 -0.097577691 -0.32920298
-0.16901071 -0.09757483 -0.32919672
-0.16782078 -0.097571038 -0.32918841
-0.16663089 -0.09756723 -0.32918
-0.16573851 -0.097564377 -0.32917377
-0.16484617 -0.097561531 -0.32916752
-0.16375534 -0.097656898 -0.32915983
-0.16276354 -0.097851455 -0.32915276
-0.16187125 -0.097848602 -0.3291465
-0.16068159 -0.097844787 -0.32913813
-0.15978944 -0.097841933 -0.3291319
-0.15889727 -0.09783908 -0.32912564
-0.15770772 -0.097835265 -0.32911727
-0.15681559 -0.097832412 -0.32911104
-0.1559235 -0.097829565 -0.32910478
-0.15473408 -0.097825751 -0.32909647
-0.15384205 -0.097822897 -0.32909018
-0.15295005 -0.097820036 -0.32908392
-0.15176073 -0.097816236 -0.3290756
-0.15086879 -0.097813383 -0.32906935
-0.14997686 -0.097810529 -0.32906306
-0.14878766 -0.097806714 -0.32905474
-0.14789584 -0.097803868 -0.32904848
-0.14700402 -0.097801007 -0.32904223
-0.14581494 -0.097797208 -0.32903391
-0.14462592 -0.097793393 -0.32902554
-0.14373417 -0.097790539 -0.32901931
-0.14284246 -0.097787693 -0.32901305
-0.14165357 -0.097783886 -0.32900473
-0.14076191 -0.097781025 -0.32899845
-0.13987029 -0.097778171 -0.32899219
-0.1386815 -0.097774364 -0.32898387
-0.13778993 -0.097771518 -0.32897761
-0.1368984 -0.097768664 -0.32897136
-0.13570978 -0.097764857 -0.32896304
-0.13481827 -0.097761996 -0.32895675
-0.13392684 -0.09775915 -0.32895052
-0.13273826 -0.097755343 -0.32894218
-0.13184689 -0.097752489 -0.32893592
-0.13095552 -0.097749643 -0.32892969
-0.1297671 -0.097745836 -0.32892135
-0.12887578 -0.097742982 -0.32891512
-0.12798452 -0.097740136 -0.32890886
-0.12679617 -0.097736321 -0.32890052
-0.12590496 -0.097733468 -0.32889426
-0.12501378 -0.097730622 -0.328888
-0.12382559 -0.097726814 -0.32887968
-0.12263744 -0.097723015 -0.32887134
-0.12174634 -0.097720161 -0.32886511
-0.12085528 -0.097717308 -0.32885885
-0.11966725 -0.097713508 -0.32885054
-0.11877625 -0.097710654 -0.32884428
-0.11788527 -0.097707801 -0.32883802
-0.11669734 -0.097704001 -0.32882971
-0.11580642 -0.097701155 -0.32882345
-0.11491554 -0.097698301 -0.32881722
-0.11372774 -0.097694494 -0.32880887
-0.11283691 -0.097691648 -0.32880265
-0.11194611 -0.097688794 -0.32879639
-0.11075842 -0.097684994 -0.32878807
-0.10986767 -0.097682141 -0.32878181
-0.10897698 -0.097679295 -0.32877555
-0.10778938 -0.097675487 -0.32876724
-0.10689873 -0.097672641 -0.32876098
-0.1060081 -0.097669788 -0.32875475
-0.10482065 -0.09766598 -0.32874641
-0.10363323 -0.097662188 -0.32873809
-0.1027427 -0.097659335 -0.32873183
-0.1018522 -0.097656488 -0.32872561
-0.10066489 -0.097652681 -0.32871726
-0.099774465 -0.097649835 -0.32871103
-0.098884031 -0.097646974 -0.32870477
-0.097696841 -0.097643182 -0.32869646
-0.096806504 -0.097640328 -0.3286902
-0.095916167 -0.097637482 -0.32868394
-0.094729103 -0.097633675 -0.32867563
-0.093838833 -0.097630829 -0.32866937
-0.092948593 -0.097627982 -0.32866314
-0.091761634 -0.097624175 -0.3286548
-0.090871468 -0.097621337 -0.3286486
-0.08998131 -0.097618483 -0.32864234
-0.08879447 -0.097614683 -0.32863402
-0.087904379 -0.09761183 -0.32862777
-0.087014303 -0.097608984 -0.32862154
-0.085827582 -0.097605191 -0.32861319
-0.084640928 -0.097601384 -0.32860488
-0.083750956 -0.097598545 -0.32859865
-0.082861006 -0.097595692 -0.32859242
-0.081674457 -0.097591899 -0.32858407
-0.080784559 -0.097589046 -0.32857785
-0.079894707 -0.097586192 -0.32857159
-0.078708276 -0.097582392 -0.32856327
-0.077818476 -0.097579554 -0.32855704
-0.076928705 -0.0975767 -0.32855082
-0.075742386 -0.097572908 -0.32854247
-0.07485266 -0.097570062 -0.32853624
-0.073962979 -0.097567201 -0.32852998
-0.072776787 -0.097563416 -0.3285217
-0.071887158 -0.09756057 -0.32851544
-0.070997559 -0.097557716 -0.32850921
-0.069811456 -0.097553916 -0.32850087
-0.068625413 -0.097550124 -0.32849255
-0.067735933 -0.097547278 -0.32848635
-0.06684646 -0.097544424 -0.32848009
-0.065660514 -0.097540632 -0.32847178
-0.064771108 -0.097537793 -0.32846555
-0.06388171 -0.097534947 -0.32845932
-0.062695898 -0.09753114 -0.32845098
-0.061806574 -0.097528294 -0.32844475
-0.060917277 -0.097525455 -0.32843852
-0.059731584 -0.097521648 -0.32843021
-0.058842339 -0.097518802 -0.32842395
-0.057953123 -0.097515956 -0.32841775
-0.056767553 -0.097512171 -0.3284094
-0.055878393 -0.097509325 -0.32840317
-0.054989263 -0.097506471 -0.32839692
-0.053803805 -0.097502679 -0.32838863
-0.052618388 -0.097498886 -0.32838032
-0.051729355 -0.097496048 -0.32837409
-0.050840355 -0.097493194 -0.32836786
-0.049655046 -0.097489402 -0.32835951
-0.048765607 -0.097782589 -0.32835317
-0.047876693 -0.097779728 -0.32834691
-0.046691503 -0.097775921 -0.32833859
-0.045802645 -0.097773083 -0.32833233
-0.044913825 -0.097770236 -0.32832614
-0.043728746 -0.097766429 -0.32831782
-0.042839974 -0.097763583 -0.32831159
-0.041951235 -0.097760737 -0.32830536
-0.040766284 -0.097756937 -0.32829702
-0.039877594 -0.097754084 -0.32829079
-0.038988944 -0.097751237 -0.32828453
-0.037804104 -0.097747445 -0.32827628
-0.036619317 -0.097743645 -0.32826799
-0.035730757 -0.097740792 -0.3282617
-0.034842223 -0.097737938 -0.3282555
-0.033657547 -0.097734138 -0.32824719
-0.032769069 -0.097731292 -0.32824096
-0.031880628 -0.097728454 -0.32823473
-0.030696062 -0.097724646 -0.32822639
-0.029807677 -0.0977218 -0.32822022
-0.028919313 -0.097718954 -0.32821396
-0.027734876 -0.097715162 -0.32820565
-0.026846573 -0.097712308 -0.32819942
-0.025958298 -0.097709469 -0.32819319
-0.02477397 -0.097705662 -0.3281849
-0.023885757 -0.097702816 -0.32817864
-0.022997567 -0.09769997 -0.32817242
-0.021813359 -0.097696178 -0.32816416
-0.020629197 -0.09769237 -0.32815582
-0.019741099 -0.097689532 -0.32814959
-0.018853037 -0.097686686 -0.32814336
-0.01766899 -0.097682893 -0.32813507
-0.016780978 -0.097680047 -0.32812884
-0.015893003 -0.097677201 -0.32812259
-0.014709071 -0.097673401 -0.3281143
-0.01382115 -0.097670548 -0.32810807
-0.01293326 -0.097667702 -0.32810187
-0.011749443 -0.097663909 -0.32809356
-0.010861608 -0.097661071 -0.32808733
-0.0099738045 -0.097658224 -0.3280811
-0.0087901028 -0.097654425 -0.32807279
-0.0079023559 -0.097651586 -0.32806659
-0.0070146387 -0.097648732 -0.32806036
-0.0058310544 -0.09764494 -0.32805207
-0.0046475157 -0.09764114 -0.32804373
-0.0037598894 -0.097638302 -0.32803753
-0.0028722936 -0.097635455 -0.32803127
-0.0016888704 -0.097631663 -0.32802299
-0.00080133229 -0.097628817 -0.32801679
8.6177111e-05 -0.097625963 -0.32801053
0.0012694844 -0.097622186 -0.32800227
-0.18239842 -0.09880434 -0.32929
-0.18180318 -0.098802418 -0.32928577
-0.18091035 -0.098799542 -0.32927951
-0.17971995 -0.098795719 -0.3292712
-0.17882718 -0.098792851 -0.32926494
-0.17793444 -0.098789982 -0.32925868
-0.17674416 -0.098786145 -0.32925031
-0.17585148 -0.098783284 -0.32924405
-0.17495883 -0.098780409 -0.32923779
-0.17376865 -0.098776586 -0.32922947
-0.17287607 -0.098773718 -0.32922322
-0.17198351 -0.098770842 -0.32921693
-0.17079347 -0.09876702 -0.32920858
-0.16990098 -0.098764151 -0.32920232
-0.16900848 -0.098761268 -0.32919607
-0.16781856 -0.098757446 -0.32918775
-0.16662867 -0.098753624 -0.32917935
-0.16573629 -0.098750755 -0.32917309
-0.16484395 -0.098747894 -0.32916686
-0.16365418 -0.098744057 -0.32915851
-0.16276188 -0.098741196 -0.32915229
-0.1618696 -0.098738328 -0.32914603
-0.16067995 -0.098734498 -0.32913765
-0.15978777 -0.09873163 -0.32913139
-0.1588956 -0.098728761 -0.32912514
-0.15770608 -0.098724939 -0.32911679
-0.15681393 -0.098722063 -0.32911056
-0.15592185 -0.098719202 -0.32910427
-0.15473244 -0.098715365 -0.32909596
-0.15384039 -0.098712504 -0.32908973
-0.15294839 -0.098709635 -0.32908341
-0.15175909 -0.098705813 -0.3290751
-0.15086715 -0.098702937 -0.32906884
-0.14997523 -0.098700069 -0.32906258
-0.14878602 -0.098696247 -0.32905427
-0.14789422 -0.098693378 -0.32904801
-0.14700238 -0.09869051 -0.32904175
-0.14581332 -0.098686688 -0.32903343
-0.14462428 -0.098682866 -0.32902503
-0.14373255 -0.098679997 -0.3290188
-0.14284083 -0.098677129 -0.32901254
-0.14165194 -0.098673306 -0.32900423
-0.1407603 -0.098670445 -0.32899797
-0.13986866 -0.098667569 -0.32899171
-0.13867988 -0.098663747 -0.3289834
-0.13778831 -0.098660879 -0.32897714
-0.13689679 -0.098658025 -0.32897088
-0.13570815 -0.098654196 -0.32896256
-0.13481668 -0.098651327 -0.32895631
-0.13392523 -0.098648466 -0.32895005
-0.13273665 -0.098644637 -0.32894167
-0.13184527 -0.098641768 -0.32893541
-0.13095391 -0.098638907 -0.32892919
-0.12976548 -0.098635092 -0.32892084
-0.1288742 -0.098632224 -0.32891461
-0.1279829 -0.098629363 -0.32890835
-0.12679459 -0.098625548 -0.32890004
-0.12590337 -0.098622665 -0.32889378
-0.12501217 -0.098619804 -0.32888752
-0.12382399 -0.098615982 -0.32887921
-0.12263583 -0.098612167 -0.32887086
-0.12174474 -0.098609291 -0.32886463
-0.12085368 -0.098606437 -0.32885838
-0.11966565 -0.098602615 -0.32885006
-0.11877465 -0.098599747 -0.3288438
-0.11788366 -0.098596886 -0.32883754
-0.11669575 -0.098593056 -0.32882923
-0.11580484 -0.098590195 -0.32882297
-0.11491396 -0.098587334 -0.32881674
-0.11372615 -0.098583512 -0.3288084
-0.11283533 -0.098580651 -0.32880217
-0.11194451 -0.098577783 -0.32879591
-0.11075681 -0.098573953 -0.32878757
-0.1098661 -0.098571099 -0.32878134
-0.1089754 -0.098568238 -0.32877508
-0.1077878 -0.098564424 -0.32876676
-0.10689717 -0.098561548 -0.3287605
-0.10600653 -0.098558687 -0.32875428
-0.10481907 -0.098554872 -0.32874593
-0.10363165 -0.09855105 -0.32873762
-0.10274114 -0.098548189 -0.32873136
-0.10185062 -0.098545328 -0.32872513
-0.10066334 -0.098541506 -0.32871678
-0.099772893 -0.098538645 -0.32871056
-0.098882467 -0.098535776 -0.3287043
-0.097695276 -0.098531961 -0.32869598
-0.096804939 -0.098529093 -0.32868972
-0.09591461 -0.098526239 -0.32868347
-0.094727546 -0.09852241 -0.32867515
-0.093837276 -0.098519556 -0.32866889
-0.092947036 -0.098516695 -0.32866266
-0.091760084 -0.098512881 -0.32865432
-0.090869918 -0.098510019 -0.32864809
-0.08997976 -0.098507151 -0.32864183
-0.088792935 -0.098503336 -0.32863352
-0.087902837 -0.098500468 -0.32862726
-0.08701276 -0.098497607 -0.32862103
-0.085826047 -0.0984938 -0.32861269
-0.084639385 -0.098489985 -0.32860443
-0.083749413 -0.098487124 -0.32859817
-0.082859471 -0.098484255 -0.32859194
-0.081672922 -0.098480441 -0.3285836
-0.080783024 -0.098477587 -0.32857737
-0.079893179 -0.098474711 -0.32857108
-0.078706749 -0.098470904 -0.32856283
-0.077816941 -0.09846805 -0.32855654
-0.07692717 -0.098465182 -0.32855034
-0.075740851 -0.098461367 -0.32854199
-0.074851133 -0.098458499 -0.32853574
-0.073961459 -0.098455645 -0.32852951
-0.07277526 -0.09845183 -0.32852122
-0.07188563 -0.098448969 -0.32851496
-0.070996039 -0.098446116 -0.32850873
-0.069809943 -0.098442294 -0.32850039
-0.068623908 -0.098438479 -0.32849208
-0.067734413 -0.098435618 -0.32848582
-0.066844933 -0.098432757 -0.32847959
-0.065659009 -0.09842895 -0.3284713
-0.064769588 -0.098426089 -0.32846507
-0.063880205 -0.098423235 -0.32845885
-0.062694401 -0.098419406 -0.3284505
-0.061805077 -0.098416559 -0.32844427
-0.060915768 -0.098413698 -0.32843801
-0.059730079 -0.098409876 -0.3284297
-0.058840837 -0.098407023 -0.32842347
-0.057951625 -0.098404162 -0.32841727
-0.056766048 -0.098400347 -0.32840893
-0.055876892 -0.098397493 -0.3284027
-0.054987773 -0.098394632 -0.32839644
-0.053802311 -0.098390818 -0.32838812
-0.052616894 -0.09838701 -0.32837984
-0.051727861 -0.098384149 -0.32837361
-0.050838862 -0.098381296 -0.32836738
-0.049653564 -0.098377481 -0.32835904
-0.048764117 -0.098670647 -0.32835266
-0.047875207 -0.098667786 -0.3283464
-0.046690028 -0.098663971 -0.32833812
-0.045801163 -0.098661102 -0.32833186
-0.044912338 -0.098658234 -0.32832563
-0.043727271 -0.098654427 -0.32831734
-0.042838499 -0.098651558 -0.32831109
-0.041949764 -0.098648705 -0.32830489
-0.040764809 -0.098644882 -0.32829654
-0.039876118 -0.098642021 -0.32829031
-0.038987473 -0.09863916 -0.32828408
-0.037802633 -0.098635346 -0.32827577
-0.036617853 -0.098631524 -0.32826748
-0.035729289 -0.098628663 -0.32826123
-0.034840755 -0.098625802 -0.328255
-0.033656087 -0.098621987 -0.32824668
-0.032767609 -0.098619133 -0.32824048
-0.031879161 -0.098616265 -0.32823423
-0.030694604 -0.09861245 -0.32822591
-0.029806219 -0.098609589 -0.32821971
-0.028917857 -0.098606728 -0.32821345
-0.027733419 -0.098602913 -0.32820517
-0.026845118 -0.098600052 -0.32819891
-0.025956845 -0.098597191 -0.32819271
-0.024772521 -0.098593377 -0.32818443
-0.023884306 -0.098590516 -0.32817817
-0.022996118 -0.098587662 -0.32817194
-0.021811914 -0.098583847 -0.32816362
-0.020627752 -0.098580025 -0.32815534
-0.019739656 -0.098577172 -0.32814911
-0.018851593 -0.098574311 -0.32814285
-0.017667551 -0.098570503 -0.32813457
-0.016779542 -0.098567642 -0.32812837
-0.015891565 -0.098564781 -0.32812211
-0.014707635 -0.098560967 -0.32811382
-0.013819716 -0.098558106 -0.32810757
-0.012931827 -0.098555245 -0.32810137
-0.011748011 -0.09855143 -0.32809305
-0.01086018 -0.098548576 -0.32808682
-0.0099723758 -0.098545715 -0.32808062
-0.008788676 -0.098541908 -0.32807231
-0.0079009319 -0.098539047 -0.32806608
-0.0070132148 -0.098536186 -0.32805988
-0.0058296314 -0.098532371 -0.32805154
-0.0046460945 -0.098528564 -0.32804325
-0.0037584705 -0.098525703 -0.32803702
-0.0028708759 -0.098522849 -0.32803079
-0.0016874546 -0.098519035 -0.32802251
-0.00079991773 -0.098516174 -0.32801628
8.7590393e-05 -0.098513313 -0.32801005
0.0012708959 -0.098509513 -0.32800177
-0.18239617 -0.099991038 -0.32928935
-0.18180093 -0.099989124 -0.32928517
-0.1809081 -0.099986225 -0.32927886
-0.1797177 -0.099982373 -0.32927054
-0.17882493 -0.099979483 -0.32926428
-0.17793219 -0.099976599 -0.32925802
-0.17674193 -0.099972747 -0.32924968
-0.17584923 -0.099969849 -0.32924339
-0.17495659 -0.099966973 -0.32923716
-0.17376643 -0.099963114 -0.32922882
-0.17287382 -0.09996023 -0.32922256
-0.1719813 -0.099957347 -0.32921627
-0.17079124 -0.099953488 -0.32920793
-0.16989876 -0.099950612 -0.32920167
-0.16900627 -0.099947721 -0.32919541
-0.16781634 -0.099943861 -0.3291871
-0.16662647 -0.099940024 -0.32917875
-0.16573408 -0.099937126 -0.32917243
-0.16484173 -0.09993425 -0.32916623
-0.16365196 -0.099930391 -0.32915786
-0.16275966 -0.099927507 -0.3291516
-0.16186738 -0.099924624 -0.32914534
-0.16067776 -0.099920779 -0.32913703
-0.15978558 -0.099917889 -0.32913074
-0.15889339 -0.099914998 -0.32912448
-0.15770386 -0.099911153 -0.32911614
-0.15681174 -0.09990827 -0.32910991
-0.15591964 -0.099905379 -0.32910365
-0.15473025 -0.099901527 -0.3290953
-0.1538382 -0.099898651 -0.32908908
-0.1529462 -0.099895768 -0.32908279
-0.1517569 -0.099891916 -0.32907444
-0.15086496 -0.099889025 -0.32906818
-0.14997302 -0.099886142 -0.32906193
-0.14878385 -0.099882297 -0.32905361
-0.14789203 -0.099879406 -0.32904735
-0.14700019 -0.099876523 -0.32904106
-0.14581114 -0.099872686 -0.32903278
-0.1446221 -0.099868841 -0.32902443
-0.14373037 -0.099865951 -0.32901818
-0.14283869 -0.09986306 -0.32901189
-0.14164977 -0.099859208 -0.32900354
-0.14075813 -0.099856332 -0.32899731
-0.1398665 -0.099853449 -0.32899106
-0.13867772 -0.099849604 -0.32898274
-0.13778615 -0.099846713 -0.32897648
-0.13689461 -0.09984383 -0.32897022
-0.13570599 -0.099839993 -0.32896191
-0.13481452 -0.099837102 -0.32895565
-0.13392307 -0.099834219 -0.32894939
-0.13273451 -0.099830382 -0.32894105
-0.13184313 -0.099827491 -0.32893479
-0.13095176 -0.099824607 -0.32892853
-0.12976333 -0.099820763 -0.32892019
-0.12887204 -0.099817879 -0.32891396
-0.12798075 -0.099815004 -0.3289077
-0.12679245 -0.099811159 -0.32889938
-0.12590124 -0.099808268 -0.32889313
-0.12501006 -0.0998054 -0.3288869
-0.12382186 -0.099801548 -0.32887858
-0.12263369 -0.099797696 -0.32887021
-0.12174261 -0.099794813 -0.32886398
-0.12085158 -0.099791929 -0.32885769
-0.11966354 -0.099788092 -0.32884935
-0.11877252 -0.099785201 -0.32884315
-0.11788157 -0.099782325 -0.32883686
-0.11669362 -0.099778481 -0.32882854
-0.11580271 -0.09977559 -0.32882231
-0.11491184 -0.099772714 -0.32881606
-0.11372405 -0.09976887 -0.32880774
-0.11283322 -0.099765994 -0.32880148
-0.11194241 -0.099763103 -0.32879525
-0.11075471 -0.099759266 -0.32878691
-0.10986397 -0.09975639 -0.32878068
-0.10897328 -0.099753506 -0.32877439
-0.10778569 -0.099749669 -0.32876608
-0.10689505 -0.099746771 -0.32875985
-0.10600442 -0.099743895 -0.32875359
-0.10481699 -0.099740051 -0.32874528
-0.10362957 -0.099736221 -0.32873696
-0.10273903 -0.09973333 -0.3287307
-0.10184855 -0.099730454 -0.32872441
-0.10066123 -0.09972661 -0.3287161
-0.099770799 -0.099723734 -0.32870987
-0.09888038 -0.099720851 -0.32870361
-0.097693197 -0.099717014 -0.32869527
-0.09680286 -0.09971413 -0.32868907
-0.095912538 -0.099711254 -0.32868284
-0.094725482 -0.09970741 -0.3286745
-0.093835205 -0.099704534 -0.32866824
-0.092944965 -0.09970165 -0.32866201
-0.091758013 -0.099697813 -0.32865366
-0.090867855 -0.09969493 -0.32864743
-0.089977697 -0.099692054 -0.32864118
-0.088790864 -0.09968821 -0.32863289
-0.087900773 -0.099685326 -0.3286266
-0.087010704 -0.09968245 -0.3286204
-0.085823983 -0.099678613 -0.32861209
-0.084637329 -0.099674776 -0.32860377
-0.083747365 -0.0996719 -0.32859752
-0.082857423 -0.099669009 -0.32859129
-0.081670865 -0.09966518 -0.32858294
-0.080780983 -0.099662304 -0.32857671
-0.079891123 -0.099659413 -0.32857046
-0.0787047 -0.099655591 -0.32856214
-0.077814899 -0.099652708 -0.32855588
-0.076925129 -0.099649824 -0.32854965
-0.075738817 -0.099645987 -0.32854134
-0.074849106 -0.099643111 -0.32853514
-0.073959425 -0.099640228 -0.32852888
-0.072773226 -0.099636391 -0.32852054
-0.071883604 -0.099633515 -0.32851431
-0.070994012 -0.099630632 -0.32850805
-0.069807924 -0.099626802 -0.32849976
-0.068621881 -0.09962295 -0.32849142
-0.067732394 -0.099620074 -0.32848516
-0.066842921 -0.099617206 -0.32847896
-0.06565699 -0.099613376 -0.32847065
-0.064767584 -0.099610493 -0.32846442
-0.063878193 -0.099607609 -0.32845816
-0.062692381 -0.09960378 -0.32844985
-0.061803062 -0.099600904 -0.32844362
-0.060913764 -0.09959802 -0.32843736
-0.059728079 -0.099594183 -0.32842904
-0.058838841 -0.099591315 -0.32842284
-0.057949621 -0.099588431 -0.32841662
-0.056764051 -0.099584602 -0.32840824
-0.055874906 -0.099581726 -0.32840204
-0.054985777 -0.09957885 -0.32839578
-0.053800318 -0.099575005 -0.3283875
-0.052911252 -0.099572137 -0.32838127
-0.052022211 -0.099569254 -0.32837504
-0.050836876 -0.099565424 -0.32836673
-0.049651578 -0.099561594 -0.32835838
-0.048762631 -0.099558711 -0.32835215
-0.047873721 -0.099555843 -0.32834592
-0.046688538 -0.099552006 -0.32833764
-0.04579968 -0.09954913 -0.32833138
-0.044910859 -0.099546254 -0.32832518
-0.043725792 -0.099542417 -0.32831684
-0.04283702 -0.099539541 -0.32831058
-0.041948285 -0.099536672 -0.32830441
-0.040763337 -0.099532835 -0.32829607
-0.039874651 -0.099529967 -0.32828984
-0.038986001 -0.099527091 -0.32828358
-0.037801165 -0.099523254 -0.32827529
-0.036616378 -0.099519417 -0.32826701
-0.035727821 -0.099516541 -0.32826075
-0.034839287 -0.099513672 -0.32825452
-0.033654619 -0.099509835 -0.32824621
-0.032766145 -0.099506959 -0.32824001
-0.0318777 -0.099504083 -0.32823375
-0.030693147 -0.099500261 -0.32822543
-0.029804762 -0.099497378 -0.32821921
-0.028916402 -0.099494502 -0.32821298
-0.027731963 -0.099490672 -0.32820469
-0.026843667 -0.099487804 -0.32819843
-0.025955392 -0.099484928 -0.3281922
-0.02477107 -0.099481098 -0.32818392
-0.023882855 -0.099478222 -0.32817769
-0.022994671 -0.099475347 -0.32817146
-0.021810465 -0.099471517 -0.32816312
-0.020626308 -0.099467687 -0.32815486
-0.019738214 -0.099464819 -0.32814863
-0.018850155 -0.099461943 -0.32814237
-0.017666109 -0.099458113 -0.32813409
-0.0167781 -0.099455245 -0.32812786
-0.015890127 -0.099452369 -0.32812163
-0.014706199 -0.099448532 -0.32811332
-0.013818284 -0.099445671 -0.32810712
-0.012930392 -0.099442795 -0.32810089
-0.01174658 -0.099438958 -0.32809258
-0.010858747 -0.099436089 -0.32808632
-0.0099709481 -0.099433221 -0.32808015
-0.0087872501 -0.099429391 -0.3280718
-0.0078995051 -0.099426515 -0.32806557
-0.0070117912 -0.099423639 -0.32805938
-0.0058282097 -0.099419817 -0.32805106
-0.0046446747 -0.09941598 -0.32804278
-0.0037570519 -0.099413119 -0.32803658
-0.0028694584 -0.099410251 -0.32803032
-0.0016860389 -0.099406414 -0.328022
-0.00079850329 -0.099403545 -0.32801583
8.9003617e-05 -0.099400669 -0.32800955
0.0012723075 -0.099396847 -0.32800126
-0.18239449 -0.10088107 -0.32928884
-0.18179925 -0.10087913 -0.32928467
-0.18090641 -0.10087623 -0.32927838
-0.17971602 -0.10087236 -0.32927006
-0.17882325 -0.10086945 -0.32926378
-0.1779305 -0.10086656 -0.32925752
-0.17674024 -0.10086269 -0.32924914
-0.17584756 -0.10085978 -0.32924291
-0.17495492 -0.10085688 -0.32923666
-0.17376475 -0.10085302 -0.32922831
-0.17287216 -0.10085012 -0.32922205
-0.17197962 -0.10084722 -0.32921579
-0.17078958 -0.10084336 -0.32920742
-0.16989708 -0.10084044 -0.32920119
-0.1690046 -0.10083757 -0.32919493
-0.16781467 -0.10083368 -0.32918659
-0.1666248 -0.10082982 -0.32917824
-0.16573243 -0.10082692 -0.32917199
-0.16484007 -0.10082401 -0.32916573
-0.16365032 -0.10082014 -0.32915738
-0.16275801 -0.10081726 -0.32915112
-0.16186574 -0.10081434 -0.32914487
-0.16067609 -0.10081048 -0.32913652
-0.15978393 -0.10080758 -0.32913026
-0.15889174 -0.10080469 -0.329124
-0.15770222 -0.10080082 -0.32911566
-0.15681009 -0.10079792 -0.3291094
-0.155918 -0.10079502 -0.32910317
-0.15472858 -0.10079114 -0.3290948
-0.15383656 -0.10078826 -0.32908857
-0.15294458 -0.10078537 -0.32908231
-0.15175526 -0.10078149 -0.32907394
-0.1508633 -0.10077859 -0.32906771
-0.1499714 -0.10077569 -0.32906145
-0.14878222 -0.10077182 -0.3290531
-0.1478904 -0.10076894 -0.32904688
-0.14699857 -0.10076603 -0.32904059
-0.1458095 -0.10076217 -0.32903227
-0.14462049 -0.1007583 -0.32902393
-0.14372875 -0.10075541 -0.32901767
-0.14283705 -0.1007525 -0.32901141
-0.14164814 -0.10074864 -0.32900307
-0.1407565 -0.10074576 -0.32899684
-0.13986488 -0.10074285 -0.32899058
-0.13867609 -0.10073898 -0.32898223
-0.13778453 -0.10073609 -0.32897601
-0.136893 -0.10073319 -0.32896972
-0.13570437 -0.10072933 -0.3289614
-0.13481289 -0.10072644 -0.32895514
-0.13392146 -0.10072354 -0.32894889
-0.13273288 -0.10071967 -0.32894057
-0.13184153 -0.10071678 -0.32893431
-0.13095017 -0.10071388 -0.32892805
-0.12976173 -0.10071002 -0.32891971
-0.12887043 -0.10070712 -0.32891345
-0.12797914 -0.10070422 -0.32890722
-0.12679082 -0.10070036 -0.32889888
-0.12589963 -0.10069747 -0.32889265
-0.12500846 -0.10069456 -0.32888639
-0.12382026 -0.10069072 -0.32887807
-0.12263212 -0.10068684 -0.32886973
-0.12174103 -0.10068396 -0.32886347
-0.12084998 -0.10068105 -0.32885724
-0.11966193 -0.10067719 -0.32884887
-0.11877093 -0.10067429 -0.32884264
-0.11787995 -0.1006714 -0.32883638
-0.11669203 -0.10066754 -0.32882807
-0.11580113 -0.10066465 -0.32882181
-0.11491026 -0.10066174 -0.32881555
-0.11372244 -0.10065789 -0.32880723
-0.11283164 -0.100655 -0.32880098
-0.11194082 -0.1006521 -0.32879475
-0.11075313 -0.10064824 -0.3287864
-0.10986239 -0.10064536 -0.32878017
-0.1089717 -0.10064246 -0.32877392
-0.10778414 -0.10063858 -0.3287656
-0.10689349 -0.10063569 -0.32875934
-0.10600285 -0.10063281 -0.32875308
-0.1048154 -0.10062894 -0.32874477
-0.103628 -0.10062508 -0.32873645
-0.10273748 -0.1006222 -0.3287302
-0.10184696 -0.1006193 -0.32872394
-0.10065966 -0.10061543 -0.32871562
-0.099769235 -0.10061254 -0.32870936
-0.098878831 -0.10060966 -0.32870317
-0.09769164 -0.10060579 -0.32869482
-0.096801303 -0.1006029 -0.32868859
-0.095910974 -0.1006 -0.32868233
-0.094723918 -0.10059615 -0.32867402
-0.093833655 -0.10059325 -0.32866776
-0.092943415 -0.10059037 -0.32866153
-0.091756463 -0.1005865 -0.32865319
-0.090866297 -0.10058361 -0.32864696
-0.089976147 -0.10058071 -0.3286407
-0.088789314 -0.10057686 -0.32863238
-0.08789923 -0.10057397 -0.32862616
-0.087009169 -0.10057109 -0.3286199
-0.085822448 -0.10056722 -0.32861158
-0.084635802 -0.10056337 -0.32860327
-0.083745822 -0.10056047 -0.32859701
-0.082855873 -0.10055757 -0.32859078
-0.081669331 -0.10055373 -0.32858247
-0.080779448 -0.10055083 -0.32857624
-0.079889588 -0.10054792 -0.32856998
-0.078703165 -0.1005441 -0.32856166
-0.077813365 -0.10054119 -0.32855541
-0.076923609 -0.10053829 -0.32854918
-0.07573729 -0.10053446 -0.32854086
-0.074847579 -0.10053156 -0.32853463
-0.073957898 -0.10052866 -0.32852837
-0.072672516 -0.10072192 -0.32851923
-0.071881577 -0.10081805 -0.32851365
-0.070991978 -0.10081518 -0.32850742
-0.069805905 -0.1008113 -0.32849908
-0.068619855 -0.10080743 -0.32849076
-0.067730367 -0.10080453 -0.32848454
-0.066840902 -0.10080165 -0.32847834
-0.065654978 -0.10079778 -0.32846999
-0.064765573 -0.10079489 -0.32846376
-0.063876189 -0.10079201 -0.32845753
-0.062690377 -0.10078815 -0.32844922
-0.06180105 -0.10078524 -0.32844293
-0.060911756 -0.10078236 -0.32843673
-0.059726074 -0.1007785 -0.32842845
-0.058836833 -0.10077559 -0.32842219
-0.057947624 -0.10077269 -0.32841593
-0.056762058 -0.10076884 -0.32840762
-0.055872902 -0.10076594 -0.32840139
-0.05498378 -0.10076305 -0.32839513
-0.053798329 -0.10075919 -0.32838684
-0.052909262 -0.1007563 -0.32838061
-0.052020222 -0.1007534 -0.32837436
-0.05083489 -0.10074956 -0.32836607
-0.049649596 -0.10074569 -0.32835776
-0.048760645 -0.1007428 -0.3283515
-0.047871742 -0.10073993 -0.3283453
-0.04668656 -0.10073605 -0.32833698
-0.045797706 -0.10073315 -0.32833073
-0.044908881 -0.10073028 -0.3283245
-0.043723818 -0.1007264 -0.32831618
-0.042835053 -0.10072352 -0.32830998
-0.041946318 -0.10072064 -0.32830372
-0.04076137 -0.10071677 -0.32829541
-0.039872687 -0.10071387 -0.32828918
-0.038984038 -0.10071099 -0.32828295
-0.037799206 -0.10070713 -0.32827467
-0.036614422 -0.10070326 -0.32826632
-0.035725869 -0.10070037 -0.32826009
-0.034837335 -0.10069748 -0.32825387
-0.033652667 -0.10069364 -0.32824555
-0.032764193 -0.10069074 -0.32823935
-0.031875748 -0.10068784 -0.32823309
-0.030691199 -0.10068399 -0.32822478
-0.029802818 -0.1006811 -0.32821858
-0.028914459 -0.10067821 -0.32821235
-0.027730023 -0.10067435 -0.32820404
-0.026841726 -0.10067146 -0.32819778
-0.025953455 -0.10066856 -0.32819155
-0.024769137 -0.10066471 -0.32818329
-0.023880923 -0.10066182 -0.32817703
-0.022992741 -0.10065894 -0.32817084
-0.021808539 -0.10065507 -0.32816249
-0.020624382 -0.10065123 -0.32815421
-0.019736292 -0.10064834 -0.32814798
-0.018848229 -0.10064545 -0.32814172
-0.01766419 -0.10064161 -0.32813346
-0.016776184 -0.10063871 -0.32812721
-0.015888212 -0.10063583 -0.32812101
-0.014704286 -0.10063197 -0.32811272
-0.01381637 -0.10062906 -0.32810646
-0.012928483 -0.10062619 -0.32810023
-0.011744672 -0.10062233 -0.32809192
-0.010856843 -0.10061945 -0.32808572
-0.0099690435 -0.10061655 -0.32807949
-0.0087853475 -0.1006127 -0.32807115
-0.0078976061 -0.10060982 -0.32806495
-0.0070098927 -0.10060693 -0.32805875
-0.0058263135 -0.10060306 -0.3280504
-0.0046427804 -0.1005992 -0.32804212
-0.0037551599 -0.10059632 -0.32803592
-0.0028675683 -0.10059344 -0.32802969
-0.0016841507 -0.10058958 -0.32802138
-0.00079661701 -0.10058669 -0.32801515
9.0887974e-05 -0.1005838 -0.32800892
0.0012741894 -0.10057995 -0.32800063
-0.18239278 -0.10177108 -0.32928833
-0.18179756 -0.10176914 -0.32928416
-0.18090473 -0.10176623 -0.3292779
-0.17971434 -0.10176234 -0.32926956
-0.17882158 -0.10175943 -0.32926333
-0.17792882 -0.10175651 -0.32925701
-0.17673858 -0.10175263 -0.32924867
-0.17584588 -0.1017497 -0.32924244
-0.17495324 -0.1017468 -0.32923618
-0.17376308 -0.10174292 -0.32922781
-0.17287049 -0.10174 -0.32922155
-0.17197794 -0.10173709 -0.32921529
-0.17078792 -0.10173319 -0.32920694
-0.16989543 -0.10173029 -0.32920071
-0.16900294 -0.10172738 -0.32919446
-0.16781302 -0.10172348 -0.32918605
-0.16662313 -0.10171961 -0.32917777
-0.16573076 -0.1017167 -0.32917148
-0.1648384 -0.10171378 -0.32916519
-0.16364865 -0.10170989 -0.32915691
-0.16275635 -0.10170698 -0.32915065
-0.16186409 -0.10170408 -0.32914439
-0.16067444 -0.10170019 -0.32913601
-0.15978226 -0.10169729 -0.32912976
-0.1588901 -0.10169437 -0.32912353
-0.15770055 -0.10169049 -0.32911518
-0.15680845 -0.10168756 -0.32910892
-0.15591635 -0.10168466 -0.32910269
-0.15472694 -0.10168076 -0.32909429
-0.15383492 -0.10167786 -0.32908803
-0.15294293 -0.10167496 -0.3290818
-0.1517536 -0.10167107 -0.32907346
-0.15086167 -0.10166815 -0.32906723
-0.14996974 -0.10166524 -0.32906094
-0.14878057 -0.10166136 -0.32905263
-0.14788876 -0.10165845 -0.3290464
-0.14699693 -0.10165554 -0.32904011
-0.14580786 -0.10165165 -0.32903177
-0.14461885 -0.10164779 -0.32902342
-0.14372712 -0.10164487 -0.32901716
-0.14283544 -0.10164195 -0.32901093
-0.1416465 -0.10163806 -0.32900259
-0.14075486 -0.10163516 -0.32899636
-0.13986324 -0.10163224 -0.3289901
-0.13867447 -0.10162837 -0.32898176
-0.13778292 -0.10162546 -0.32897553
-0.13689139 -0.10162255 -0.32896927
-0.13570274 -0.10161866 -0.3289609
-0.13481127 -0.10161576 -0.32895464
-0.13391984 -0.10161285 -0.32894838
-0.13273127 -0.10160897 -0.32894006
-0.13183989 -0.10160606 -0.32893381
-0.13094857 -0.10160315 -0.32892755
-0.12976012 -0.10159927 -0.32891926
-0.12886882 -0.10159635 -0.32891297
-0.12797755 -0.10159344 -0.32890674
-0.12678923 -0.10158957 -0.3288984
