# .PCD v0.7 - Point Cloud Data file format
VERSION 0.7
FIELDS x y z
SIZE 4 4 4
TYPE F F F
COUNT 1 1 1
WIDTH 1305
HEIGHT 1
VIEWPOINT 0 0 0 1 0 0 0
POINTS 1305
DATA ascii
0.012792449 -0.06050954 -0.67787427
0.039675746 -0.059219908 -0.67755687
0.040909715 -0.058014993 -0.67778069
0.01156278 -0.055624694 -0.6779294
0.042130139 -0.055569787 -0.67780483
0.011560629 -0.05440085 -0.67791742
0.042120136 -0.054336645 -0.67767519
0.011557838 -0.053174112 -0.67786801
0.042110123 -0.053103965 -0.67754549
0.011554813 -0.051946491 -0.67780477
0.011551788 -0.050719097 -0.67774153
0.011548764 -0.049491931 -0.67767829
0.011545741 -0.048264999 -0.67761511
0.011542716 -0.047038294 -0.67755187
0.011540082 -0.045813359 -0.67751145
0.011538344 -0.044592034 -0.67752379
0.042108294 -0.044560485 -0.67773533
0.011538077 -0.043376192 -0.67762244
0.011539266 -0.042165328 -0.67780668
0.011540459 -0.0409538 -0.67799103
0.042090937 -0.034778036 -0.67770672
0.011526956 -0.03361053 -0.67788422
0.011522185 -0.032379795 -0.67771816
0.011517237 -0.031149169 -0.67754155
0.04205969 -0.015216872 -0.67770517
0.040822882 -0.002993525 -0.67779392
0.010250412 -0.00059672847 -0.6778093
0.010245435 0.00062575069 -0.67760885
0.040811088 0.0043428084 -0.67779207
0.010236349 0.0055142604 -0.67752278
0.010237321 0.0067383293 -0.67771602
0.010238293 0.0079630958 -0.67790931
0.037119702 0.017786032 -0.67776501
0.035890128 0.019004118 -0.67767322
0.034660902 0.020221867 -0.67758149
0.017541973 0.022636 -0.6775111
0.018774996 0.023876403 -0.67797226
0.021208256 0.023866007 -0.67756265
0.022437004 0.023874866 -0.67775691
0.023663782 0.023881026 -0.67787457
0.024890993 0.023887187 -0.67799222
0.017679442 -0.064133845 -0.67748326
0.029895728 -0.064104356 -0.67735791
0.031106828 -0.064080149 -0.6771208
0.035993539 -0.064073786 -0.6771279
0.037224174 -0.064087547 -0.67729193
0.038455401 -0.064101309 -0.67745602
0.014005896 -0.062893726 -0.67723233
0.01278219 -0.059248224 -0.67743373
0.042099975 -0.051871575 -0.67741346
0.042089827 -0.050639667 -0.6772815
0.042079683 -0.049408235 -0.67714959
0.042069543 -0.048177287 -0.67701775
0.042075749 -0.045745615 -0.67718029
0.011512291 -0.02991919 -0.67736506
0.011507347 -0.028689848 -0.67718863
0.011502406 -0.027461151 -0.67701232
0.042036112 -0.027414482 -0.67701197
0.042055707 -0.026206583 -0.67735881
0.042055558 -0.024985706 -0.67738777
0.042044654 -0.023758652 -0.67724347
0.011495907 -0.022578744 -0.67708778
0.04203463 -0.022532584 -0.67711335
0.01149569 -0.021360587 -0.67718959
0.011495472 -0.020142063 -0.67729139
0.042025585 -0.020087121 -0.67703032
0.011490962 -0.018916106 -0.67714018
0.04202836 -0.018867888 -0.67710632
0.042028937 -0.017647462 -0.67714703
0.042023391 -0.016424496 -0.67708904
0.011473706 -0.0091430731 -0.67704028
0.040789738 -0.0042126253 -0.67721128
0.010240461 0.001847507 -0.67740858
0.040789872 0.0018961995 -0.67737514
0.010235898 0.0030686639 -0.67723542
0.040791839 0.0031184673 -0.67744005
0.010235377 0.0042908899 -0.67732966
0.0395643 0.0055604745 -0.67741543
0.038319703 0.0067769205 -0.67705315
0.038322158 0.007999219 -0.67713088
0.039534498 0.01044281 -0.67703837
0.039536104 0.011665215 -0.67709911
0.011435333 0.015283241 -0.67707145
0.038321633 0.015332807 -0.67732793
0.011440194 0.016514404 -0.67747456
0.012652292 0.017727183 -0.67704368
0.016310632 0.021397293 -0.67705059
0.02730515 0.022639973 -0.67714864
0.028531699 0.022645907 -0.677266
0.029758679 0.022651846 -0.67738348
0.01998014 0.023857053 -0.67736566
0.015213297 -0.06404531 -0.67651093
0.016445478 -0.064089544 -0.67699671
0.032317083 -0.064055964 -0.67688376
0.033534095 -0.064046286 -0.67680013
0.034763519 -0.064060032 -0.67696398
0.013995755 -0.061636005 -0.67683595
0.012771945 -0.057988547 -0.67699385
0.012762281 -0.056733035 -0.67658466
0.040831383 -0.056686249 -0.6765151
0.042059407 -0.04694682 -0.6768859
0.040828604 -0.039624117 -0.67692024
0.040819205 -0.038395956 -0.67679662
0.012729595 -0.037200995 -0.67650032
0.04203454 -0.03351206 -0.67682999
0.042016547 -0.028621145 -0.67666548
0.011497467 -0.026233086 -0.67683613
0.011496341 -0.025013953 -0.67688429
0.011496124 -0.023796532 -0.67698604
0.042024609 -0.02130699 -0.67698324
0.011484605 -0.017687859 -0.67688036
0.011479037 -0.016461665 -0.67666662
0.011476666 -0.01524049 -0.6766414
0.011475549 -0.014020941 -0.67669016
0.011475272 -0.012802153 -0.67678857
0.040772885 -0.012754805 -0.67670548
0.011474998 -0.011583011 -0.67688704
0.040778488 -0.01153618 -0.67683083
0.011474486 -0.010363301 -0.67697155
0.040771633 -0.010313951 -0.67674935
0.040764291 -0.0090919072 -0.67665976
0.011469008 -0.0079198908 -0.67687786
0.040756952 -0.0078701861 -0.67657018
0.011464315 -0.0066972976 -0.67671555
0.011460432 -0.0054756762 -0.67660111
0.040756643 -0.0054296306 -0.6766296
0.011457839 -0.0042549474 -0.67656285
0.039524026 0.00067150634 -0.67659271
0.039516002 0.0043329275 -0.67655516
0.011432719 0.011610651 -0.67657149
0.011432244 0.012832736 -0.67665845
0.011431769 0.014055133 -0.67674541
0.038298905 0.014101844 -0.67689186
0.0370644 0.016537827 -0.67671973
0.013864852 0.018941147 -0.67671049
0.015080972 0.020160271 -0.67659074
0.032164674 0.021407263 -0.67654139
0.023620941 0.022615323 -0.67659163
0.024848731 0.022623902 -0.67678815
0.026077243 0.022632485 -0.67698479
0.020083191 -0.062787503 -0.67618328
0.021306936 -0.062797301 -0.67630786
0.022519113 -0.062773593 -0.67607147
0.03715229 -0.062747613 -0.67601937
0.038389109 -0.06277398 -0.67632246
0.038373329 -0.061531726 -0.67607856
0.013985624 -0.060379744 -0.67644
0.038394835 -0.060348965 -0.6764918
0.013975505 -0.059124947 -0.67604446
0.012755253 -0.055490453 -0.67631507
0.040821645 -0.055455241 -0.67638594
0.012748622 -0.054250531 -0.67606646
0.040811915 -0.054224707 -0.67625684
0.040802184 -0.052994642 -0.67612785
0.012728834 -0.040840778 -0.67615014
0.040801406 -0.040816106 -0.67643702
0.012730344 -0.039631847 -0.67633361
0.012731502 -0.038421199 -0.67649841
0.012724707 -0.035972361 -0.6763438
0.012719819 -0.034744289 -0.67618728
0.012714935 -0.033516791 -0.67603087
0.04200447 -0.032269463 -0.67637706
0.042002846 -0.031049524 -0.67638224
0.042003378 -0.0298311 -0.67642212
0.040749609 -0.0066487901 -0.67648059
0.011454256 -0.003034093 -0.67646593
0.011448932 -0.0018133133 -0.67626631
0.011443613 -0.00059325394 -0.67606682
0.039518833 -0.0005489483 -0.67647052
0.011439238 0.0030657081 -0.67615247
0.039497454 0.0031108274 -0.67620432
0.011434948 0.0042845085 -0.67601383
0.011431464 0.0079444228 -0.67615241
0.011432696 0.0091666477 -0.67634016
0.038265817 0.009207651 -0.67616957
0.011433193 0.010388882 -0.67648453
0.038253538 0.01164467 -0.67602128
0.038276207 0.012872467 -0.67645627
0.03704058 0.015306406 -0.67624938
0.012635014 0.016480817 -0.67601508
0.035828236 0.017749999 -0.6764679
0.034594655 0.018962163 -0.67624837
0.033361871 0.020173537 -0.67602909
0.028480954 0.02138461 -0.67601538
0.029709136 0.021392819 -0.67621154
0.030938039 0.021401033 -0.67640781
0.021167513 0.022598181 -0.6761989
0.022393869 0.022606749 -0.67639518
0.015197617 -0.062768243 -0.6759001
0.018849859 -0.062744252 -0.67569864
0.023730449 -0.062749892 -0.67583525
0.024940947 -0.062726215 -0.67559916
0.033469189 -0.062707409 -0.67552936
0.034696292 -0.062720805 -0.67569268
0.035923988 -0.062734209 -0.67585599
0.015186799 -0.061513055 -0.67550522
0.039562289 -0.057834614 -0.67565256
0.013958788 -0.05542323 -0.6755175
0.012745207 -0.053024877 -0.67598838
0.012741795 -0.051799506 -0.67591029
0.04079235 -0.051764913 -0.67599708
0.012738382 -0.050574422 -0.67583227
0.040782481 -0.050535601 -0.67586565
0.01273497 -0.049349621 -0.67575425
0.040772606 -0.049306773 -0.67573428
0.01273156 -0.048125099 -0.67567629
0.040762745 -0.048078418 -0.67560303
0.012728148 -0.046900861 -0.67559832
0.040774107 -0.046874937 -0.67582345
0.012725 -0.045677844 -0.67553419
0.040774837 -0.04565876 -0.67586774
0.012724307 -0.044463634 -0.67560041
0.040768776 -0.044435017 -0.67579943
0.012725815 -0.043256667 -0.67578357
0.040762711 -0.04321152 -0.67573112
0.012727324 -0.04204905 -0.6759668
0.040769994 -0.042002022 -0.67588401
0.040764533 -0.037127007 -0.67592227
0.012710053 -0.032289863 -0.67587453
0.012704962 -0.031062977 -0.67570698
0.01269972 -0.029836344 -0.67553145
0.040724415 -0.027355712 -0.67551464
0.012697978 -0.02618907 -0.67574853
0.04072487 -0.026138633 -0.67555434
0.01269321 -0.024964554 -0.67559808
0.040725324 -0.024921415 -0.67559409
0.0407237 -0.023702841 -0.67559928
0.040726315 -0.022486594 -0.67567492
0.040728938 -0.021270074 -0.67575061
0.012684551 -0.020088408 -0.67555046
0.04073156 -0.020053281 -0.67582625
0.040734179 -0.018836219 -0.67590201
0.040733196 -0.017617323 -0.67591792
0.040727772 -0.01639658 -0.67586023
0.040722352 -0.015176047 -0.67580241
0.040716931 -0.013955722 -0.67574465
0.039486874 -0.0017677638 -0.67589021
0.011438296 0.00062608585 -0.67586738
0.011438564 0.0018456073 -0.67599803
0.039478932 0.0018899943 -0.67585397
0.011429841 0.0055024135 -0.67582667
0.038248338 0.0055449107 -0.67575777
0.011430155 0.0067228316 -0.67596006
0.038245045 0.010422306 -0.67583686
0.037018709 0.014077421 -0.67581469
0.035793494 0.016512757 -0.67577529
0.01384574 0.017693546 -0.67568296
0.034559183 0.017723061 -0.67551714
0.026026741 0.021368204 -0.6756233
0.027253484 0.021376401 -0.67581928
0.018717781 0.022582041 -0.67583603
0.0176183 -0.062701076 -0.67521471
0.026150603 -0.062702559 -0.67536324
0.027359426 -0.062678903 -0.67512751
0.029791491 -0.06266728 -0.67504019
0.031016791 -0.062680647 -0.67520314
0.032242689 -0.062694028 -0.67536622
0.015175993 -0.060259335 -0.67511082
0.038328573 -0.059029538 -0.67535847
0.013955304 -0.05661976 -0.67525494
0.039545231 -0.056594122 -0.67539436
0.039523926 -0.055348612 -0.67506367
0.013921893 -0.038336881 -0.67504597
0.040736284 -0.035884485 -0.67548609
0.040732265 -0.034664154 -0.67545158
0.040728245 -0.033443943 -0.67541713
0.040724568 -0.032224137 -0.6753884
0.040723052 -0.031006075 -0.67539543
0.040723506 -0.029789429 -0.67543513
0.012694482 -0.028610349 -0.67535603
0.040723961 -0.028572641 -0.67547488
0.012692066 -0.027391076 -0.6753307
0.012686776 -0.023737468 -0.67535895
0.012684628 -0.022518849 -0.67534792
0.01268459 -0.021303812 -0.67544919
0.012680143 -0.01886614 -0.67541903
0.012673485 -0.017641215 -0.67516768
0.012671075 -0.016422698 -0.67514259
0.012668663 -0.01520427 -0.67511743
0.012666252 -0.013985934 -0.67509234
0.012665914 -0.012769777 -0.67517763
0.012665727 -0.01155345 -0.67527103
0.012665324 -0.010336614 -0.67535305
0.012664923 -0.0091194808 -0.67543513
0.012661218 -0.0078999912 -0.67534101
0.012656251 -0.0066801752 -0.67517954
0.039446257 -0.006636769 -0.67506218
0.012651283 -0.0054609403 -0.67501801
0.039456584 -0.0054206611 -0.67527211
0.039452307 -0.0042022411 -0.67523205
0.039454967 -0.00298449 -0.67531085
0.012643295 0.00062732468 -0.67510921
0.01264424 0.0018455462 -0.67526323
0.012644849 0.0030642424 -0.67539936
0.012640238 0.0042816619 -0.67525667
0.038225651 0.0043230816 -0.67532265
0.012634804 0.0054982072 -0.67506993
0.037007492 0.0067583863 -0.67539728
0.037000388 0.0079756649 -0.6753031
0.036978751 0.011625351 -0.67501438
0.036996871 0.012850018 -0.67538047
0.012618874 0.015239545 -0.67504781
0.035763763 0.015280156 -0.67517734
0.015055283 0.018905092 -0.67535114
0.033327751 0.018933529 -0.67529833
0.016263647 0.020115459 -0.67501974
0.032097775 0.020143621 -0.67509347
0.017488675 0.021346426 -0.67537773
0.022350812 0.02134363 -0.67503613
0.023575407 0.021351814 -0.67523175
0.024800716 0.021360008 -0.6754275
0.016388513 -0.06265796 -0.67473143
0.028567411 -0.062655278 -0.67489189
0.035854694 -0.061399657 -0.6745888
0.037090492 -0.061428968 -0.67493021
0.015165199 -0.059007071 -0.67471695
0.038290307 -0.057756424 -0.67471838
0.015159494 -0.055356175 -0.6747219
0.013942834 -0.054150268 -0.6748392
0.039509159 -0.054113243 -0.6748445
0.039499696 -0.052885771 -0.674716
0.039490182 -0.051658694 -0.67458659
0.03949162 -0.048016705 -0.67471051
0.039503433 -0.046815839 -0.67494541
0.013922468 -0.045606781 -0.67451
0.039502639 -0.04559958 -0.67496496
0.013926698 -0.044409726 -0.67480886
0.039496705 -0.04437748 -0.67489678
0.013925738 -0.043195497 -0.67485625
0.039490778 -0.043155622 -0.67482865
0.013924777 -0.041981101 -0.67490369
0.039484855 -0.041934017 -0.67476052
0.013923815 -0.04076653 -0.67495108
0.039478932 -0.040712658 -0.67469239
0.013922855 -0.039551795 -0.67499852
0.039473608 -0.039492149 -0.67463458
0.039467491 -0.038271073 -0.67456311
0.013914263 -0.037104011 -0.67476994
0.039463535 -0.037052289 -0.67452866
0.013907445 -0.035874233 -0.67453325
0.039448127 -0.02731771 -0.67453033
0.013894666 -0.026145233 -0.67466551
0.039448507 -0.026102409 -0.67456996
0.03944888 -0.024886962 -0.67460948
0.039443508 -0.023667928 -0.67455083
0.039439656 -0.021234198 -0.67455113
0.039442122 -0.020019563 -0.67462653
0.039444596 -0.01880466 -0.67470199
0.039442156 -0.017587293 -0.67469341
0.039436851 -0.016368767 -0.67463577
0.039431546 -0.01515045 -0.67457819
0.039426245 -0.013932341 -0.67452061
0.039421532 -0.011498466 -0.67450637
0.039427713 -0.010283793 -0.67464525
0.039433893 -0.0090686195 -0.67478418
0.039440073 -0.0078529445 -0.67492312
0.01264632 -0.0042422903 -0.6748566
0.012642016 -0.0030243788 -0.6747303
0.012641408 -0.0018074521 -0.67480141
0.01264235 -0.00059034128 -0.67495525
0.013847306 0.0018454853 -0.67453003
0.038189985 0.0018846113 -0.67462403
0.013847314 0.003062675 -0.6746248
0.038207807 0.0031032155 -0.67497319
0.012629371 0.0067140805 -0.67488331
0.012623943 0.0079292813 -0.6746968
0.012620119 0.0091449721 -0.67459607
0.036964666 0.0091854902 -0.67468643
0.012620123 0.010363442 -0.6746999
0.036971703 0.010405124 -0.67485034
0.012619803 0.011581989 -0.67478639
0.012619481 0.012800847 -0.67487288
0.01261916 0.014020019 -0.67495942
0.035742581 0.014053077 -0.67474091
0.013826733 0.016449787 -0.67466086
0.034526151 0.016487759 -0.67483354
0.033293698 0.017696198 -0.67456913
0.028419621 0.020120332 -0.67451358
0.029644964 0.020128092 -0.67470682
0.030871015 0.020135853 -0.67490005
0.019903773 0.021327272 -0.67464525
0.021126939 0.021335449 -0.67484063
0.016373176 -0.061390594 -0.67417973
0.032180347 -0.061360538 -0.67410094
0.033404533 -0.061373573 -0.67426348
0.034629315 -0.061386611 -0.67442608
0.037062511 -0.060169149 -0.6744563
0.015154418 -0.057756271 -0.67432344
0.015153334 -0.056543063 -0.67436141
0.038272977 -0.056516517 -0.67444706
0.038252324 -0.055272792 -0.67411727
0.015142858 -0.05408657 -0.67406762
0.013933544 -0.052905038 -0.67448336
0.013930001 -0.051682405 -0.67440569
0.013926459 -0.050460059 -0.67432803
0.039480586 -0.050431974 -0.67445576
0.01392292 -0.049237993 -0.67425036
0.039479814 -0.049216729 -0.67447573
0.013919379 -0.048016205 -0.6741727
0.013915839 -0.046794701 -0.67409503
0.038236067 -0.046756897 -0.67406964
0.038233846 -0.045540556 -0.67406458
0.015128491 -0.044362433 -0.67411768
0.015128284 -0.043151345 -0.67419475
0.015127409 -0.041938134 -0.67424214
0.015126534 -0.040724747 -0.67428946
0.015125658 -0.039511193 -0.67433679
0.015124783 -0.038297467 -0.67438418
0.039459586 -0.035833631 -0.67449427
0.013901589 -0.034647703 -0.67434323
0.039455634 -0.034615096 -0.67445987
0.013896447 -0.033423569 -0.67418766
0.039451685 -0.033396684 -0.67442548
0.013891304 -0.032199997 -0.67403221
0.039449211 -0.032179601 -0.6744163
0.039447624 -0.030963248 -0.67442226
0.039447371 -0.029747883 -0.67445111
0.039447747 -0.028532866 -0.67449069
0.013888026 -0.027345346 -0.67424905
0.013888227 -0.024920151 -0.67444688
0.013881382 -0.023695165 -0.67420858
0.03942094 -0.012714441 -0.67446309
0.038180027 -0.0054143211 -0.67424285
0.038180765 -0.0041983044 -0.67429012
0.038176563 -0.0029817305 -0.67425013
0.013843655 -0.0018035595 -0.67406917
0.038172364 -0.0017653017 -0.67421019
0.01384487 -0.00058776536 -0.67422271
0.03816817 -0.00054901693 -0.67417032
0.013846089 0.00062858273 -0.67437631
0.038172178 0.0006672673 -0.67427528
0.013842753 0.0042787949 -0.67449707
0.036939997 0.004313272 -0.6740948
0.013837079 0.0054940111 -0.67431492
0.036957156 0.0055321716 -0.6744433
0.01383132 0.0067085293 -0.67412871
0.035708811 0.011606433 -0.6740303
0.035721593 0.01282764 -0.67430806
0.013817762 0.015220775 -0.67412859
0.034497578 0.0152569 -0.67423725
0.01503472 0.017660417 -0.67434192
0.016241575 0.01886991 -0.67402327
0.032064408 0.018904975 -0.67435092
0.025971059 0.020104829 -0.67412764
0.027194981 0.020112578 -0.67432052
0.018681327 0.021319099 -0.67444998
0.020011941 -0.061355256 -0.67384958
0.021220157 -0.061332121 -0.67361486
0.028511373 -0.061321463 -0.67361373
0.029733766 -0.06133448 -0.67377603
0.030956758 -0.061347503 -0.67393845
0.016361699 -0.060139399 -0.67378694
0.035797209 -0.060089488 -0.67354363
0.037033379 -0.058909189 -0.67396134
0.037021849 -0.057678446 -0.67378682
0.01635059 -0.056474801 -0.67356843
0.037004288 -0.056439128 -0.67350239
0.016357383 -0.055289272 -0.67392808
0.038231689 -0.054030288 -0.67378771
0.038213365 -0.049154703 -0.67360115
0.038224708 -0.047956221 -0.67383528
0.015123099 -0.045556381 -0.67379123
0.03822805 -0.044320095 -0.67399657
0.016328484 -0.04310729 -0.67353463
0.038222257 -0.043099876 -0.67392856
0.016327694 -0.041895252 -0.67358184
0.038216468 -0.041879911 -0.67386067
0.016326904 -0.04068305 -0.67362911
0.038211178 -0.04066072 -0.67380154
0.016326115 -0.039470676 -0.67367637
0.038214438 -0.039450567 -0.67389315
0.016325323 -0.038258132 -0.67372358
0.038204294 -0.038226675 -0.67374837
0.015104215 -0.037035286 -0.67355329
0.03819276 -0.037001964 -0.67357916
0.03818664 -0.035782922 -0.67350531
0.013880748 -0.029753948 -0.67370778
0.013881393 -0.028543975 -0.67383301
0.038175259 -0.028493209 -0.67350942
0.038175564 -0.027279822 -0.67354894
0.015086438 -0.026099646 -0.67353719
0.038175862 -0.026066288 -0.6735884
0.038173076 -0.024850598 -0.67357326
0.038167823 -0.023633443 -0.67351478
0.013874542 -0.022471046 -0.6739704
0.013867708 -0.021247793 -0.67373246
0.013867542 -0.020035028 -0.67381847
0.013863305 -0.018816425 -0.67370653
0.038159601 -0.018773213 -0.6735062
0.013860214 -0.017599685 -0.67365038
0.013857763 -0.016383903 -0.67362535
0.013855314 -0.015168213 -0.67360038
0.013852865 -0.013952612 -0.6735754
0.013850907 -0.012737554 -0.67357433
0.013850749 -0.011523996 -0.67366076
0.013850491 -0.010310055 -0.67374235
0.038148493 -0.010268993 -0.67354929
0.013850234 -0.0090958187 -0.67382401
0.038154405 -0.0090557942 -0.67368776
0.013848035 -0.0078801829 -0.6738112
0.038160313 -0.0078420956 -0.67382628
0.013842795 -0.0066631292 -0.67365038
0.03816754 -0.0066281273 -0.67398816
0.013837848 -0.0042324555 -0.67359799
0.013842438 -0.0030188004 -0.67391568
0.015046277 0.00062983815 -0.67364502
0.015047766 0.0018454245 -0.67379838
0.015047029 0.0030611116 -0.67385203
0.03692285 0.0030956315 -0.67374653
0.015042247 0.0042758426 -0.67372459
0.035701677 0.0067399433 -0.67374951
0.013825567 0.0079223765 -0.67394257
0.035688639 0.007952882 -0.67353988
0.013819808 0.0091355508 -0.67375624
0.035695359 0.009170142 -0.67370325
0.013815122 0.010348853 -0.67362219
0.035702087 0.010387992 -0.67386675
0.013815214 0.011565671 -0.67372102
0.013815304 0.012782847 -0.67381984
0.013815394 0.014000377 -0.67391866
0.034470521 0.01402881 -0.67367059
0.015023967 0.016430115 -0.67377275
0.033262335 0.016462831 -0.67389441
0.032031771 0.017669413 -0.6736238
0.017447295 0.02007827 -0.67370492
0.02230352 0.020081608 -0.67354941
0.023525329 0.020089345 -0.67374206
0.024747839 0.020097084 -0.67393476
0.01878497 -0.061319895 -0.67344195
0.02242754 -0.061309014 -0.67338032
0.023634087 -0.061285917 -0.67314595
0.024847757 -0.061282456 -0.67312729
0.026068367 -0.061295453 -0.67328936
0.027289569 -0.061308455 -0.67345154
0.033340115 -0.060044713 -0.6730023
0.034562591 -0.060057405 -0.67316425
0.016350238 -0.058889661 -0.67339456
0.035768077 -0.058829714 -0.67303187
0.016343802 -0.057659067 -0.67320919
0.017552461 -0.055222522 -0.67313612
0.03698428 -0.055197183 -0.67317343
0.01634015 -0.054023016 -0.6732977
0.015125033 -0.052815162 -0.67336029
0.038211077 -0.052788991 -0.67345858
0.038193453 -0.051552922 -0.67318201
0.038202025 -0.050352365 -0.67336714
0.015113096 -0.046734888 -0.67325938
0.03697199 -0.046698105 -0.67319614
0.016320327 -0.045503691 -0.67303866
0.036968429 -0.045481686 -0.67316657
0.016326291 -0.044311054 -0.6733644
0.03696277 -0.04426286 -0.67309874
0.036957115 -0.043044288 -0.67303097
0.036954943 -0.040617906 -0.67306191
0.017524227 -0.039430238 -0.6730172
0.015096993 -0.035807744 -0.67331749
0.015089775 -0.034581058 -0.67308182
0.038182758 -0.034566179 -0.67347097
0.038179122 -0.033349779 -0.67344105
0.038177527 -0.032135192 -0.67344695
0.038175929 -0.030920591 -0.67345291
0.038174957 -0.029706454 -0.6734699
0.015080166 -0.027299764 -0.67317086
0.015079182 -0.024875894 -0.67329955
0.015071929 -0.023653006 -0.67306209
0.038162578 -0.0224165 -0.67345631
0.038157329 -0.021199768 -0.67339784
0.038157277 -0.019985966 -0.67343104
0.038155798 -0.017557371 -0.67347324
0.038150609 -0.016341057 -0.67341584
0.038145423 -0.015124947 -0.67335844
0.038147096 -0.013911548 -0.67342216
0.038149033 -0.012698004 -0.67349046
0.038146332 -0.011482819 -0.67347693
0.013837555 -0.0054466566 -0.67348957
0.03690638 -0.0054078572 -0.673199
0.036912762 -0.0041943779 -0.67335069
0.015041405 -0.0030135221 -0.67316717
0.036908649 -0.002979503 -0.67331094
0.0150433 -0.0017996754 -0.67333853
0.036904532 -0.001764772 -0.67327112
0.01504479 -0.00058519508 -0.67349178
0.036900416 -0.00055018481 -0.6732313
0.036908645 0.00066448114 -0.67341679
0.016245635 0.001845364 -0.67306834
0.036910992 0.0018795166 -0.67349488
0.016244009 0.0030595514 -0.67308104
0.035675481 0.0055201752 -0.67321855
0.01503059 0.0067029893 -0.67337573
0.015024512 0.0079154866 -0.67319006
0.034442585 0.011587571 -0.67304903
0.034450375 0.012805334 -0.67323911
0.015014802 0.015203481 -0.67327499
0.033234913 0.015233707 -0.67329973
0.016229808 0.017639166 -0.67345464
0.017434513 0.01884708 -0.67313677
0.029576117 0.018865813 -0.67309582
0.030804615 0.018876499 -0.67340618
0.018648427 0.020064985 -0.67319226
0.019862022 0.020066151 -0.67316455
0.02108242 0.020073876 -0.67335689
0.017557571 -0.061277885 -0.67296129
0.029676259 -0.060006671 -0.6725167
0.030896951 -0.060019348 -0.67267847
0.032118235 -0.060032029 -0.6728403
0.03575689 -0.057600688 -0.67285776
0.017545041 -0.056406703 -0.67277735
0.035739154 -0.056361958 -0.67256039
0.017534714 -0.053959616 -0.67252964
0.036964297 -0.05395646 -0.67284489
0.016321089 -0.052753117 -0.67259198
0.036944665 -0.052717414 -0.67252272
0.015112937 -0.051565833 -0.67290777
0.036945913 -0.05150865 -0.6725806
0.015109265 -0.050346203 -0.6728304
0.015105596 -0.049126856 -0.67275304
0.036950186 -0.049092837 -0.67272878
0.015102021 -0.047908101 -0.67267996
0.036961082 -0.04789589 -0.67296237
0.01631142 -0.046686739 -0.67259163
0.017521424 -0.04425979 -0.67261279
0.017526342 -0.043063309 -0.67287576
0.017525638 -0.041852452 -0.67292291
0.036951862 -0.041826405 -0.67297053
0.017524932 -0.040641427 -0.67297006
0.017519362 -0.038209803 -0.67290467
0.036947314 -0.038185656 -0.6729933
0.016294157 -0.036976483 -0.67251712
0.036936112 -0.03696233 -0.6728245
0.036924917 -0.035739616 -0.67265576
0.015082562 -0.033355236 -0.67284638
0.015075357 -0.032130267 -0.67261112
0.01507281 -0.028496509 -0.67275614
0.03690647 -0.028453667 -0.67253101
0.036906697 -0.02724204 -0.67257035
0.036906313 -0.02602984 -0.67259854
0.036901176 -0.024814345 -0.67254019
0.015064682 -0.022430981 -0.67282474
0.015057439 -0.021209816 -0.67258757
0.036882173 -0.012682091 -0.67254591
0.036878485 -0.011468299 -0.6725139
0.036879063 -0.00904301 -0.6725949
0.036884703 -0.007831282 -0.67273301
0.036894388 -0.0066197836 -0.67294502
0.015034785 -0.0042254226 -0.67278439
0.016240356 -0.0017957998 -0.67260951
0.016242117 -0.00058263034 -0.67276239
0.016243875 0.00063109084 -0.67291534
0.035657186 0.00066186639 -0.67272741
0.035659384 0.0018756539 -0.67280531
0.035661582 0.0030897232 -0.67288327
0.016239008 0.0042728968 -0.6729539
0.035663776 0.0043040733 -0.67296124
0.016233597 0.005485645 -0.67280984
0.016227193 0.0066974629 -0.67262447
0.034423362 0.0079393573 -0.6725601
0.015017906 0.0091269938 -0.67298067
0.034429766 0.0091548404 -0.672723
0.01500841 0.010335753 -0.67264181
0.034436174 0.010370911 -0.67288601
0.015008674 0.011550802 -0.67274028
0.015008941 0.012766206 -0.67283887
0.015009206 0.013981965 -0.67293739
0.033207547 0.014006751 -0.67270607
0.016218062 0.016410496 -0.67288697
0.032002036 0.01643797 -0.67295784
0.017421758 0.017617969 -0.67256963
0.030773379 0.017642703 -0.67268103
0.025911037 0.018843701 -0.67251945
0.027132025 0.018851066 -0.67271149
0.028353717 0.018858438 -0.6729036
0.01754277 -0.060019929 -0.67246813
0.026017748 -0.059968684 -0.67203182
0.027236655 -0.059981335 -0.67219335
0.028456166 -0.059994005 -0.672355
0.017530646 -0.058772702 -0.6720773
0.034509245 -0.05875551 -0.67216283
0.017537624 -0.05758962 -0.67241895
0.018744742 -0.055155937 -0.67234606
0.035719793 -0.055121794 -0.67223239
0.035710357 -0.052688215 -0.67212749
0.035705749 -0.05147187 -0.67207712
0.036939301 -0.050288964 -0.67249542
0.016299326 -0.047858827 -0.67201334
0.035700735 -0.047835719 -0.67209178
0.035711184 -0.046639465 -0.67232484
0.01751489 -0.045451131 -0.67228782
0.035706386 -0.045422975 -0.67227095
0.035700865 -0.044205785 -0.67220336
0.018721012 -0.043017454 -0.67218751
0.035695657 -0.042989209 -0.67214161
0.018721245 -0.041809738 -0.67226523
0.035698563 -0.041782361 -0.67223275
0.018720627 -0.04059989 -0.67231232
0.035701476 -0.040575184 -0.67232394
0.018720003 -0.039389879 -0.67235935
0.035704035 -0.039367292 -0.67240852
0.018709373 -0.038159274 -0.6720469
0.035693154 -0.038144734 -0.67223996
0.03568228 -0.036922794 -0.67207152
0.016282266 -0.035741486 -0.67210609
0.036913726 -0.034517512 -0.67248708
0.036911104 -0.033303749 -0.6724745
0.036909495 -0.032090914 -0.6724804
0.015068153 -0.030906156 -0.67237592
0.036907889 -0.03087806 -0.67248636
0.015065463 -0.029691782 -0.672342
0.036906283 -0.02966518 -0.67249233
0.016268509 -0.027254324 -0.67209607
0.016273763 -0.026053451 -0.67239296
0.016266098 -0.02483179 -0.6721561
0.03689605 -0.023599064 -0.67248189
0.036890917 -0.022383993 -0.6724236
0.036885787 -0.021169132 -0.67236531
0.015050203 -0.019989511 -0.67235059
0.036880665 -0.019954484 -0.67230707
0.015048239 -0.018776637 -0.67234921
0.036879148 -0.018741878 -0.67231464
0.015047015 -0.017564632 -0.67238081
0.036875773 -0.017528361 -0.6722883
0.015045791 -0.016352516 -0.6724124
0.036877573 -0.01631723 -0.67235631
0.015044564 -0.015140284 -0.67244393
0.036879372 -0.015105854 -0.67242438
0.015043339 -0.013927937 -0.67247552
0.036881175 -0.013894234 -0.6724925
0.015040799 -0.012714367 -0.6724484
0.01503497 -0.01149838 -0.67227411
0.015030024 -0.010283621 -0.67213923
0.036874797 -0.010254622 -0.67248195
0.015029908 -0.0090722675 -0.67222047
0.015029492 -0.0078604631 -0.67228824
0.015023982 -0.0066461614 -0.67212814
0.015028174 -0.0054359455 -0.67240208
0.035636678 -0.0054014125 -0.6721583
0.035648175 -0.0041904477 -0.67241162
0.016236136 -0.0030079619 -0.67235464
0.035644263 -0.0029772816 -0.67237431
0.035640225 -0.0017642437 -0.67233455
0.017436858 -0.00058007112 -0.67203456
0.035639953 -0.00055140763 -0.67236584
0.017438887 0.00063234085 -0.67218721
0.034408294 0.00065925688 -0.67203939
0.017440917 0.0018453035 -0.67233986
0.03441035 0.0018717992 -0.67211717
0.017438257 0.0030579949 -0.67231178
0.034412399 0.0030846226 -0.67219496
0.017433034 0.0042699575 -0.67218488
0.034414448 0.0042977263 -0.67227274
0.017427815 0.0054814625 -0.67205811
0.0344165 0.0055111106 -0.67235059
0.034418557 0.0067247767 -0.67242849
0.016220791 0.0079086125 -0.67243916
0.016213257 0.0091184573 -0.67220688
0.033181813 0.010356334 -0.6720674
0.033183306 0.011569903 -0.67213684
0.033186138 0.012784236 -0.67223334
0.016201183 0.013965012 -0.67202657
0.016208826 0.01518623 -0.67242366
0.031975769 0.01521058 -0.67236483
0.017409023 0.016390927 -0.67200345
0.030745246 0.01641318 -0.67202389
0.018627254 0.018827267 -0.67235821
0.019838383 0.018827565 -0.67229795
0.02104931 0.018827861 -0.67223763
0.022260021 0.018828159 -0.67217743
0.023471171 0.018828979 -0.67213571
0.024690753 0.018836338 -0.67232758
0.022364572 -0.059930746 -0.67154765
0.023581706 -0.059943385 -0.671709
0.024799429 -0.059956033 -0.67187035
0.032056354 -0.05870847 -0.67158443
0.033275936 -0.058720812 -0.67174578
0.018728653 -0.057520334 -0.67163056
0.034495432 -0.05752315 -0.67193139
0.018736694 -0.056338765 -0.67198813
0.034477565 -0.056285005 -0.67162097
0.019934233 -0.0550895 -0.67155778
0.018726563 -0.053896349 -0.67176324
0.034471095 -0.053857777 -0.67157006
0.035703629 -0.053887639 -0.67196459
0.017514426 -0.052691218 -0.67182547
0.034477513 -0.052659053 -0.67173278
0.016302068 -0.051485881 -0.6718877
0.034467455 -0.051435146 -0.67157435
0.035690106 -0.05024017 -0.67181903
0.035690289 -0.049031142 -0.67185879
0.017507372 -0.046638682 -0.67192519
0.018706797 -0.045398679 -0.67153859
0.018713903 -0.044208642 -0.67186296
0.019914526 -0.041767109 -0.67160887
0.01991399 -0.040558435 -0.67165589
0.034450766 -0.040532559 -0.67158759
0.019913452 -0.039349597 -0.67170286
0.034452375 -0.039325085 -0.67165649
0.017485037 -0.036927558 -0.67166036
0.035671413 -0.035701454 -0.67190319
0.016274648 -0.034517031 -0.6718713
0.035660874 -0.034481049 -0.67174101
0.016267035 -0.033293433 -0.67163664
0.035651658 -0.033262461 -0.6716038
0.035645105 -0.032046761 -0.67151672
0.035643492 -0.030835645 -0.67152262
0.035641875 -0.029624509 -0.67152852
0.016260432 -0.028449195 -0.67168272
0.035641368 -0.028414236 -0.67155534
0.035641521 -0.027204372 -0.67159462
0.035638202 -0.025991827 -0.67156839
0.035633188 -0.024778204 -0.67151034
0.016258443 -0.023610989 -0.67191941
0.016250789 -0.022391047 -0.67168289
0.016245319 -0.019965805 -0.67161632
0.016245302 -0.018756503 -0.67169541
0.016244136 -0.017545674 -0.67172694
0.016242966 -0.016334729 -0.67175847
0.0162418 -0.015123673 -0.67178994
0.016239882 -0.01391186 -0.67179054
0.035618749 -0.013876968 -0.67156541
0.035617888 -0.012665874 -0.67158556
0.035614267 -0.01145382 -0.67155367
0.035610646 -0.01024188 -0.67152178
0.035607859 -0.0090302676 -0.67150563
0.035613704 -0.0078206072 -0.6716522
0.035625186 -0.0066114655 -0.67190516
0.016221562 -0.0054274774 -0.67159134
0.016228845 -0.004218407 -0.67197275
0.017427986 -0.0030024147 -0.67154402
0.01743483 -0.0017919326 -0.67188203
0.034390803 -0.00055275677 -0.67166007
0.018633619 0.0018452432 -0.67161298
0.018629784 0.0030564419 -0.67154425
0.033165764 0.0030795322 -0.67150801
0.033167675 0.0042913924 -0.67158568
0.033169579 0.005503532 -0.67166334
0.017421132 0.006691948 -0.67187482
0.033174992 0.0067166626 -0.671812
0.017414408 0.0079017533 -0.67168993
0.033178814 0.0079299491 -0.67192852
0.033180311 0.0091430172 -0.67199796
0.016198676 0.011535975 -0.67176247
0.031943362 0.01155804 -0.67156172
0.016199116 0.012749613 -0.67186069
0.031945702 0.012771203 -0.67165148
0.031950753 0.013985878 -0.67179823
0.017399834 0.015169022 -0.67157435
0.018610587 0.017596828 -0.67168701
0.029518513 0.017616065 -0.67174101
0.018720511 -0.059905019 -0.67120028
0.019932074 -0.059905488 -0.67122525
0.021148033 -0.059918117 -0.67138648
0.018720623 -0.05870064 -0.67127335
0.028401157 -0.058671478 -0.67110091
0.029618967 -0.058683809 -0.67126203
0.030837363 -0.058696136 -0.6714232
0.033237442 -0.05744582 -0.67100745
0.019925563 -0.056270983 -0.67120069
0.033233881 -0.055025388 -0.67101353
0.034464672 -0.055055916 -0.6714074
0.033240005 -0.053827953 -0.67117602
0.018705053 -0.052629463 -0.67106074
0.03324569 -0.052629244 -0.6713298
0.017494179 -0.051425487 -0.67112279
0.033231013 -0.051398482 -0.67107236
0.016286839 -0.050232857 -0.67133939
0.034452297 -0.050204385 -0.67131662
0.016287254 -0.049028907 -0.67143607
0.034437153 -0.048974574 -0.67105913
0.017494265 -0.047809657 -0.67134804
0.034443658 -0.047775701 -0.67122334
0.018699698 -0.046587568 -0.67121458
0.034453109 -0.046580236 -0.67144519
0.034447722 -0.045364425 -0.67137772
0.019903727 -0.044157606 -0.67111468
0.034442559 -0.044149149 -0.67131472
0.019911405 -0.042967718 -0.67143863
0.034445293 -0.042943943 -0.67140561
0.034448028 -0.041738413 -0.67149657
0.021105036 -0.040517058 -0.67100066
0.021104582 -0.039309397 -0.67104757
0.019896358 -0.038108874 -0.67119133
0.034441818 -0.038103901 -0.67148829
0.034431268 -0.036883339 -0.67132026
0.034420721 -0.035663381 -0.67115223
0.034411509 -0.034445364 -0.6710102
0.016259428 -0.032070681 -0.67140216
0.016256712 -0.030858066 -0.67136967
0.01625653 -0.029650183 -0.67144179
0.017453067 -0.027209032 -0.67102474
0.017457064 -0.026007414 -0.67125261
0.017449001 -0.024787836 -0.67101657
0.035623167 -0.022351587 -0.67139411
0.016243143 -0.021171965 -0.67144662
0.035618156 -0.021138592 -0.671336
0.035619542 -0.01992939 -0.67139858
0.017440045 -0.018736407 -0.67104286
0.035618555 -0.018718706 -0.67141622
0.017438935 -0.017526748 -0.67107433
0.035613734 -0.017506082 -0.67136174
0.017437823 -0.016316978 -0.6711058
0.035615407 -0.016296623 -0.67142963
0.017436629 -0.01510702 -0.671134
0.03561708 -0.015086918 -0.67149752
0.016228473 -0.011482869 -0.67147815
0.016222242 -0.010268885 -0.67130017
0.016216017 -0.0090555446 -0.67112225
0.016214289 -0.0066351774 -0.67121035
0.03437091 -0.0053949882 -0.67112088
0.017420031 -0.0042114081 -0.67116308
0.034381915 -0.0041858945 -0.67137343
0.034383409 -0.0029750662 -0.6714403
0.01862561 -0.0017879661 -0.67111576
0.034379452 -0.001763717 -0.67140073
0.018629024 -0.00057751744 -0.67130834
0.018631322 0.00063358806 -0.67146063
0.033161957 0.00065665273 -0.6713528
0.03316386 0.0018679525 -0.67143041
0.018624345 0.0042670253 -0.67141771
0.018618906 0.0054771514 -0.67129117
0.031926394 0.0054961718 -0.67100233
0.01861242 0.0066864453 -0.67112684
0.03193517 0.0067088692 -0.67122728
0.031939257 0.0079212151 -0.67135376
0.017405866 0.0091099385 -0.67143488
0.031940624 0.0091332402 -0.67142308
0.017394898 0.010315766 -0.67108619
0.031941995 0.010345515 -0.6714924
0.030709866 0.012759212 -0.67112416
0.017391503 0.013949351 -0.67117834
0.030714644 0.013972925 -0.67127067
0.03072012 0.015187517 -0.67143255
0.01859688 0.01637142 -0.67112273
0.029491948 0.016388457 -0.67109257
0.019815767 0.017593021 -0.67146605
0.021025196 0.017593425 -0.67140597
0.02223441 0.017593829 -0.67134583
0.023443419 0.017594233 -0.67128575
0.024652215 0.017594635 -0.67122567
0.025860799 0.01759504 -0.67116559
0.027069367 0.017595565 -0.67111009
0.028288133 0.017602555 -0.67130131
0.023539631 -0.058631696 -0.67056543
0.024752127 -0.05863655 -0.67064101
0.025967315 -0.058646854 -0.67077899
0.027183941 -0.058659166 -0.67093986
0.0199169 -0.057451203 -0.67084396
0.033227772 -0.056222253 -0.67085117
0.021120952 -0.055023231 -0.67077142
0.032004546 -0.054994904 -0.67062014
0.019915707 -0.053833228 -0.67099857
0.032010365 -0.053798161 -0.67078245
0.032010622 -0.052591689 -0.67082816
0.031996425 -0.051361866 -0.67057109
0.033216339 -0.050168652 -0.67081499
0.01748118 -0.048978627 -0.67077196
0.03320168 -0.048939776 -0.67055786
0.018686846 -0.047760583 -0.67068404
0.033197645 -0.046520211 -0.67055416
0.019896057 -0.045346346 -0.67079103
0.021099159 -0.042918094 -0.67069131
0.033197664 -0.042898782 -0.67067134
0.021105489 -0.041724563 -0.67095381
0.03320023 -0.041694567 -0.67076206
0.033202793 -0.040490024 -0.67085284
0.033203501 -0.039282963 -0.67090607
0.033193272 -0.038063165 -0.67073834
0.018672895 -0.036878753 -0.67080587
0.033183049 -0.036843974 -0.67057061
0.017463289 -0.035675474 -0.67089897
0.017455274 -0.034453232 -0.67066503
0.034402564 -0.033228114 -0.67087328
0.034393612 -0.032011356 -0.67073643
0.034384672 -0.030795101 -0.67059964
0.034381103 -0.029583955 -0.67056751
0.017444365 -0.02840217 -0.67061603
0.034379948 -0.028374923 -0.67058259
0.03437889 -0.02716591 -0.67059952
0.034373987 -0.025953939 -0.67054152
0.017440939 -0.023569115 -0.67078072
0.034368884 -0.023533832 -0.67051709
0.017434932 -0.02235388 -0.67062384
0.03437119 -0.022327002 -0.6705997
0.017437626 -0.02114976 -0.67080158
0.034373492 -0.021119874 -0.67068225
0.017440325 -0.019945003 -0.6709795
0.034375802 -0.019912448 -0.67076486
0.034370705 -0.018700695 -0.67070299
0.034362141 -0.017487405 -0.67057347
0.034356728 -0.016276069 -0.67050546
0.03435827 -0.015068033 -0.67057317
0.034359816 -0.013859751 -0.67064083
0.017425641 -0.012680544 -0.67085946
0.034357224 -0.012649705 -0.67062795
0.017419161 -0.011467398 -0.67068416
0.034353666 -0.011439382 -0.67059612
0.017412622 -0.010254849 -0.67050654
0.034350116 -0.010229175 -0.67056435
0.034346554 -0.0090190824 -0.67053252
0.01620979 -0.0078428462 -0.67094439
0.034348924 -0.0078104497 -0.67061633
0.017406827 -0.0066263061 -0.67050588
0.03435991 -0.006603173 -0.67086852
0.017412081 -0.0054190299 -0.67078257
0.018616976 -0.0029968808 -0.6707353
0.033126052 -0.0029728571 -0.67050886
0.033126488 -0.0017634212 -0.67055666
0.019818621 -0.00057496916 -0.67058361
0.033144269 -0.00055410306 -0.67095566
0.019821187 0.00063483266 -0.6707356
0.031917401 0.00065403798 -0.67065132
0.01982375 0.0018451827 -0.67088759
0.031919934 0.0018641134 -0.67074507
0.0198186 0.0030548922 -0.67077845
0.031921692 0.0030744525 -0.67082256
0.019812943 0.0042640991 -0.67065221
0.031923454 0.0042850715 -0.67090011
0.019807287 0.0054728501 -0.67052597
0.030697513 0.0067010894 -0.67064363
0.018605378 0.007894909 -0.67094243
0.030701827 0.0079124952 -0.67078
0.018595746 0.0091014411 -0.67066461
0.030703066 0.0091234799 -0.67084914
0.030704305 0.010334713 -0.67091835
0.017385229 0.011521192 -0.67078745
0.030705547 0.011546198 -0.67098761
0.01738584 0.012733069 -0.67088538
0.029475976 0.012747238 -0.67059761
0.02948048 0.013959993 -0.67074388
0.018587846 0.015151857 -0.67072719
0.029484985 0.015173279 -0.67089027
0.01979474 0.016362796 -0.67068833
0.021003583 0.016363939 -0.6706543
0.022212308 0.016365081 -0.67062026
0.023420913 0.016366225 -0.67058623
0.024629405 0.016367367 -0.67055213
0.025837783 0.01636851 -0.67051816
0.028256726 0.016372265 -0.67051029
0.019908248 -0.058630176 -0.6704877
0.02111548 -0.058621991 -0.67041415
0.022327416 -0.058626845 -0.67048979
0.021102378 -0.057382245 -0.67005932
0.025935484 -0.057370681 -0.67000651
0.027147256 -0.057375386 -0.67008197
0.028359309 -0.057380091 -0.67015749
0.029571636 -0.0573848 -0.67023301
0.030784244 -0.057389501 -0.67030853
0.031997133 -0.05739421 -0.67038411
0.021111658 -0.056203358 -0.6704151
0.030771144 -0.056159914 -0.67006516
0.031998731 -0.056191064 -0.67045796
0.030776661 -0.054964449 -0.67022723
0.021102156 -0.053770252 -0.67023575
0.030782178 -0.053768404 -0.67038935
0.030777404 -0.052554198 -0.67032731
0.018683584 -0.05136523 -0.67035961
0.030763689 -0.051325306 -0.67007059
0.017475802 -0.050167643 -0.6704917
0.018673077 -0.050132945 -0.67005175
0.031982239 -0.050132975 -0.67031413
0.018672751 -0.04892844 -0.67010915
0.031968065 -0.048905037 -0.67005742
0.019877078 -0.047711603 -0.67002136
0.033189818 -0.047715839 -0.67035723
0.019888394 -0.046533938 -0.67046773
0.021082684 -0.045294132 -0.6700452
0.033192534 -0.045306228 -0.67048985
0.021090917 -0.044106681 -0.67036808
0.022293083 -0.041680135 -0.67026842
0.031955164 -0.041650813 -0.67002916
0.022293763 -0.040475763 -0.67034674
0.031957563 -0.040447585 -0.67011976
0.022293394 -0.039269269 -0.67039353
0.031957433 -0.039240938 -0.67015743
0.021080339 -0.038058609 -0.67033792
0.03317355 -0.035626169 -0.67041761
0.033164863 -0.034409754 -0.67028093
0.017447261 -0.033231847 -0.67043126
0.033156175 -0.033193842 -0.67014438
0.017444527 -0.032020986 -0.67040014
0.033147495 -0.031978421 -0.67000782
0.017444473 -0.030814972 -0.67047209
0.018636368 -0.025961529 -0.67011613
0.034369092 -0.024742175 -0.67048359
0.018630061 -0.021127865 -0.67016625
0.033132255 -0.021101825 -0.67004991
0.018633071 -0.01992424 -0.67034382
0.033133827 -0.019895192 -0.67012066
0.018632475 -0.018716352 -0.67039162
0.018631419 -0.017507862 -0.67042297
0.018630367 -0.016299261 -0.67045438
0.018625308 -0.015087304 -0.67034167
0.018619578 -0.01387525 -0.6702047
0.018613849 -0.012663691 -0.67006779
0.033114284 -0.010223025 -0.67003691
0.017406086 -0.009042942 -0.67032903
0.033125941 -0.0090180114 -0.67031169
0.017407076 -0.0078350622 -0.67044139
0.033109616 -0.0078054108 -0.67002034
0.018602965 -0.006619622 -0.67002237
0.033107966 -0.0065967864 -0.67002594
0.018601334 -0.0054110656 -0.6700331
0.033109039 -0.0053885835 -0.67008662
0.018608358 -0.004204426 -0.67035532
0.033119552 -0.0041813552 -0.67033845
0.019812407 -0.0017838939 -0.67030811
0.031900357 -0.00055544649 -0.67025274
0.021008495 0.00063607452 -0.67001212
0.021010598 0.0018450585 -0.6701405
0.030678552 0.0018602825 -0.67006117
0.02100472 0.0030533464 -0.67001444
0.030680165 0.0030693833 -0.67013848
0.030681783 0.0042787637 -0.67021585
0.030689154 0.0054894518 -0.67041898
0.019801065 0.0066809547 -0.67038053
0.029462013 0.0066933231 -0.67006093
0.019793704 0.0078880806 -0.67019659
0.029466519 0.007903791 -0.6702072
0.029467629 0.0091137365 -0.67027622
0.018584173 0.010305892 -0.6703167
0.029468739 0.010323931 -0.67034531
0.029471476 0.011535012 -0.6704514
0.028244028 0.012735285 -0.67007196
0.018578827 0.013933733 -0.67033219
0.028248258 0.013947083 -0.67021799
0.019783929 0.015143199 -0.67025673
0.020991992 0.015144398 -0.6702227
0.022199938 0.015145599 -0.67018867
0.023407768 0.015146799 -0.67015469
0.024615483 0.015148 -0.67012072
0.025823561 0.015149482 -0.6700992
0.027031656 0.01515101 -0.67007971
0.02825249 0.015159409 -0.67036408
0.027046043 0.016369652 -0.67048413
0.02230186 -0.057356581 -0.66978019
0.023512788 -0.057361275 -0.66985554
0.024723999 -0.057365984 -0.66993105
0.022294985 -0.056135893 -0.66963142
0.029545002 -0.056128804 -0.66967297
0.022304893 -0.054957103 -0.6699869
0.029550217 -0.054934032 -0.66983479
0.028329264 -0.053707346 -0.66958398
0.029555434 -0.05373868 -0.66999668
0.021078216 -0.052506369 -0.66953635
0.029546032 -0.052516758 -0.66982716
0.019875323 -0.051318094 -0.66976762
0.029532801 -0.051288806 -0.6695708
0.019868789 -0.050098285 -0.66961235
0.030749988 -0.050097357 -0.66981405
0.030736296 -0.048870344 -0.66955769
0.031953901 -0.047678027 -0.66980088
0.021074457 -0.046480428 -0.66972256
0.03194559 -0.046460457 -0.66966701
0.031947985 -0.045258537 -0.66975754
0.02227547 -0.044055872 -0.66962314
0.031950377 -0.044056285 -0.66984802
0.022284271 -0.042868577 -0.6699456
0.031952772 -0.042853713 -0.66993856
0.023476133 -0.041632019 -0.66952366
0.023480184 -0.04043455 -0.66969407
0.023479898 -0.039229222 -0.6697408
0.031947523 -0.038022514 -0.66999
0.019857742 -0.036830071 -0.66995347
0.031937785 -0.036804888 -0.66982609
0.018640084 -0.035609696 -0.66969621
0.031929355 -0.035589311 -0.66968966
0.031920932 -0.034374226 -0.66955334
0.018628994 -0.031976406 -0.66950518
0.018629069 -0.030771995 -0.66957694
0.033138819 -0.03076349 -0.66987127
0.018629141 -0.029567324 -0.66964871
0.033130143 -0.02954906 -0.66973484
0.018629214 -0.028362397 -0.66972047
0.033122297 -0.02833583 -0.66961521
0.018633865 -0.027163882 -0.66995686
0.03312365 -0.025924003 -0.66972029
0.018627902 -0.024744026 -0.66988087
0.033125799 -0.024718901 -0.66980267
0.018624049 -0.023533205 -0.66981149
0.033127956 -0.023513507 -0.6698851
0.018627053 -0.022330852 -0.66998881
0.033130102 -0.022307815 -0.66996747
0.019820247 -0.021106012 -0.66953218
0.01982357 -0.019903516 -0.66970938
0.019822598 -0.018696332 -0.66974157
0.033125509 -0.018682724 -0.66999131
0.019821601 -0.017489014 -0.66977292
0.03311719 -0.017470725 -0.66986209
0.019817162 -0.016278753 -0.66968793
0.033108883 -0.016259193 -0.66973287
0.019811194 -0.015067634 -0.66955125
0.033102926 -0.0150492 -0.66965133
0.033103637 -0.013842288 -0.66970474
0.033100151 -0.01263358 -0.66967303
0.018607039 -0.011451961 -0.66989195
0.03188619 -0.011426024 -0.66959137
0.033102639 -0.01142705 -0.66976231
0.018600198 -0.010240845 -0.66971487
0.029465333 -0.01022088 -0.66952395
0.03068102 -0.010221595 -0.66969484
0.031897336 -0.010222308 -0.66986579
0.018599944 -0.0090335701 -0.66977507
0.030673089 -0.0090117445 -0.66956371
0.031901624 -0.0090156673 -0.66999626
0.018602582 -0.0078272931 -0.66993928
0.031876568 -0.0078013716 -0.66951042
0.019797387 -0.0066129472 -0.66953963
0.019795777 -0.0054052589 -0.6695503
0.019794168 -0.0041975318 -0.66956097
0.019803112 -0.0029913601 -0.66992855
0.031871129 -0.0029705553 -0.66955781
0.020996362 -0.0017798315 -0.66950238
0.031883333 -0.0017634943 -0.66985464
0.021005668 -0.00057242642 -0.66986048
0.030659053 -0.00055678713 -0.66955125
0.030675344 0.00065142667 -0.66994905
0.020998847 0.0042611798 -0.66988844
0.029446147 0.0042729764 -0.66961265
0.020992974 0.0054685585 -0.66976255
0.029454079 0.0054827444 -0.66983676
0.020987082 0.0066754767 -0.66963595
0.028233323 0.0078950999 -0.66963536
0.019782908 0.0090929624 -0.66989613
0.028234305 0.0091040097 -0.66970432
0.019770732 0.010296042 -0.66954899
0.028235573 0.010313271 -0.66978002
0.018572615 0.011509097 -0.6699692
0.028239798 0.011524014 -0.66992593
0.018569816 0.012717042 -0.66993761
0.027014017 0.012723348 -0.66954708
0.019773129 0.013925168 -0.66982561
0.020980418 0.013926426 -0.6697917
0.022187587 0.013927683 -0.66975772
0.023395028 0.013929172 -0.66973484
0.024602519 0.013930732 -0.6697154
0.025809949 0.013932292 -0.66969597
0.027017979 0.013934191 -0.66969293
0.023486005 -0.056093551 -0.66914731
0.024695929 -0.056098096 -0.66922259
0.025906133 -0.056102648 -0.66929787
0.027116619 -0.056107201 -0.66937321
0.028327381 -0.056111753 -0.66944855
0.023486076 -0.054891136 -0.66920412
0.027101656 -0.054873303 -0.66905123
0.028325217 -0.054903649 -0.66944283
0.022285912 -0.053707413 -0.66947454
0.027101098 -0.053669084 -0.66908491
0.022269698 -0.052466076 -0.66904515
0.028316505 -0.052479379 -0.6693278
0.021069754 -0.051282682 -0.66932869
0.028303752 -0.051252358 -0.66907179
0.021062946 -0.050063677 -0.66917354
0.02951958 -0.050061785 -0.66931468
0.019862261 -0.04887905 -0.66945714
0.021056144 -0.048845243 -0.66901851
0.029510397 -0.048842374 -0.66915005
0.021064971 -0.047662724 -0.66936004
0.028296692 -0.047629312 -0.66904122
0.029510332 -0.047638271 -0.66919219
0.030724529 -0.047647242 -0.66934329
0.029504657 -0.04642519 -0.66910708
0.030720467 -0.046436552 -0.66929668
0.022266675 -0.04524203 -0.66930097
0.030708048 -0.045213737 -0.66906798
0.03070838 -0.04401001 -0.66911709
0.023466766 -0.042819172 -0.66920161
0.030710604 -0.042808745 -0.66920745
0.030712828 -0.041607153 -0.66929781
0.024664301 -0.040393412 -0.66904265
0.030715054 -0.04040524 -0.66938823
0.024661571 -0.039185233 -0.66902071
0.030714147 -0.039199006 -0.66941041
0.022261316 -0.038008466 -0.66948676
0.030704563 -0.037981953 -0.6692434
0.021039587 -0.036781512 -0.66910315
0.030696036 -0.036766775 -0.66909945
0.018631672 -0.034389663 -0.66946316
0.018628921 -0.033180565 -0.66943347
0.031912509 -0.033159643 -0.66941702
0.03190409 -0.031945549 -0.66928077
0.028270671 -0.030733673 -0.66906226
0.029477287 -0.030731415 -0.66905308
0.030683879 -0.030729162 -0.66904396
0.031895675 -0.030731948 -0.66914451
0.028267771 -0.029525712 -0.66903913
0.02948007 -0.029529205 -0.66915989
0.030691497 -0.029531432 -0.66925198
0.031898439 -0.029529192 -0.66924286
0.028264586 -0.028317552 -0.66900921
0.029476831 -0.028320821 -0.66912997
0.030689519 -0.028324094 -0.66925073
0.031902649 -0.028327364 -0.66937155
0.029471351 -0.027110485 -0.6690492
0.030683294 -0.027113006 -0.66915697
0.031895641 -0.027115533 -0.66926479
0.030675381 -0.025900833 -0.66902632
0.031887487 -0.025903156 -0.66913402
0.019810291 -0.024709681 -0.6690011
0.01981361 -0.023509093 -0.66917801
0.031889368 -0.023493219 -0.66925424
0.019816928 -0.022307869 -0.66935503
0.031891365 -0.022288663 -0.6693365
0.031893361 -0.021083815 -0.66941881
0.021011367 -0.0198824 -0.66906154
0.031891033 -0.019875968 -0.66941023
0.021010425 -0.018676354 -0.66909277
0.031882957 -0.01866479 -0.66928118
