# .PCD v0.7 - Point Cloud Data file format
VERSION 0.7
FIELDS x y z
SIZE 4 4 4
TYPE F F F
COUNT 1 1 1
WIDTH 1284
HEIGHT 1
VIEWPOINT 0 0 0 1 0 0 0
POINTS 1284
DATA ascii
-0.0020098216 -0.013191217 -0.69621545
-0.0020114097 -0.011932945 -0.696073
-0.0020132686 -0.010676624 -0.6960243
-0.0020453949 0.0094117634 -0.69607043
-0.002048119 0.010671108 -0.69631672
0.0042124814 0.021977643 -0.69606668
0.00058353256 -0.064642832 -0.69585162
-0.00069768028 -0.048330732 -0.6959005
-0.00069964258 -0.047072992 -0.6958639
-0.00070160476 -0.045815382 -0.69582731
-0.00070360606 -0.044560403 -0.69582975
-0.00070566172 -0.04330875 -0.69588578
-0.00070771761 -0.0420569 -0.69594187
-0.0007097316 -0.040802412 -0.69595641
-0.00071170344 -0.039545521 -0.69592959
-0.00071367959 -0.038288962 -0.69590706
-0.00071756006 -0.035772547 -0.69579303
-0.00071949477 -0.034514394 -0.69573098
-0.00072333147 -0.031997379 -0.69557673
-0.0020151907 -0.0094207758 -0.69599748
-0.0020171122 -0.0081650252 -0.69597077
-0.0020190335 -0.0069093695 -0.69594395
-0.0020209241 -0.0056537255 -0.69590652
-0.002022801 -0.0043981867 -0.6958645
-0.0020264273 -0.001887447 -0.69573694
-0.0020282152 -0.00063241425 -0.69566464
-0.002030005 0.00062235835 -0.69559312
-0.0020318232 0.0018768995 -0.69553149
-0.0020358916 0.0043862481 -0.69555622
-0.0020382837 0.0056419796 -0.69569069
-0.0020406768 0.0068981964 -0.69582522
-0.0020430291 0.008154735 -0.69594574
-0.0007996785 0.015688717 -0.69594038
0.00045165734 0.018201331 -0.69593602
0.0056045316 -0.06833069 -0.69513458
0.0030962336 -0.06711331 -0.69547564
0.001838679 -0.065823264 -0.69508135
0.00058115722 -0.063346632 -0.69540131
0.00057886756 -0.062060948 -0.6950506
-0.00072522077 -0.030738086 -0.69547236
-0.00072710949 -0.02947917 -0.69536805
-0.00072899775 -0.028220629 -0.69526374
-0.00073088531 -0.02696247 -0.69515949
-0.00073284237 -0.025707137 -0.69512153
-0.00073482015 -0.024452645 -0.69510359
-0.00073679665 -0.023198178 -0.69508445
-0.00073877315 -0.021943782 -0.69506538
-0.0007407493 -0.020689454 -0.69504625
-0.00074272545 -0.019435195 -0.69502711
-0.0020336409 0.003131218 -0.69546986
-0.00079689512 0.014419192 -0.69525617
0.00045310665 0.016925462 -0.69509256
0.0017027899 0.019433558 -0.69503611
0.0029561352 0.020700682 -0.69541758
0.006712337 0.023205066 -0.69509947
0.00057658018 -0.060776569 -0.6947003
0.00057442818 -0.059507269 -0.69451129
0.0005664521 -0.054496624 -0.69451648
0.00056447077 -0.053245146 -0.69453341
0.00056248921 -0.051993608 -0.69455034
-0.00074467226 -0.018180288 -0.69498062
-0.00074653712 -0.016923698 -0.69485819
-0.00074840139 -0.01566755 -0.69473577
-0.00075026473 -0.014411848 -0.69461334
-0.00079212524 0.011899333 -0.69457608
-0.00079440069 0.013156853 -0.6948213
0.00057237042 -0.058248129 -0.6944353
0.00057031331 -0.056989275 -0.69435936
0.00056837726 -0.055742532 -0.69443101
0.00056039094 -0.050731435 -0.69442254
0.00055827282 -0.049467903 -0.69426918
0.00055615552 -0.048204929 -0.69411582
0.00055410969 -0.046948478 -0.69405079
0.00055208697 -0.045694154 -0.69401443
0.00055010914 -0.044443559 -0.69403434
0.00054815941 -0.043195125 -0.69409007
0.00054620934 -0.041946493 -0.69414586
0.00054425909 -0.040697653 -0.69420159
0.00054230844 -0.039448623 -0.69425738
0.00054027146 -0.038193304 -0.69420266
0.00053822936 -0.036937814 -0.69414091
0.00053618773 -0.035682544 -0.69407916
0.00053414633 -0.034427494 -0.69401741
-0.00075212773 -0.013156585 -0.69449103
-0.00075398269 -0.011901651 -0.69436193
-0.00075587258 -0.010647685 -0.69426578
-0.00075779785 -0.0093945116 -0.69420248
-0.00075972266 -0.0081415661 -0.69413912
-0.00076166319 -0.0068889931 -0.69409037
-0.0007636277 -0.0056367763 -0.69406372
-0.00076556567 -0.0043845046 -0.69401318
-0.00078552042 0.0081342962 -0.69402933
-0.00078763429 0.0093876151 -0.69413501
-0.00078985118 0.010642702 -0.69433105
0.00045445119 0.015649186 -0.69409627
0.0017028507 0.0181592 -0.69424683
0.0054553919 0.021928724 -0.69445217
0.011713612 0.025698589 -0.694493
0.0068445229 -0.068190113 -0.69372278
0.0018336338 -0.064462297 -0.69392771
0.0018307185 -0.06317877 -0.69357848
0.00053210522 -0.033172671 -0.69395566
0.0005300421 -0.031916711 -0.69386441
0.00052796979 -0.030660525 -0.69376057
0.00052588974 -0.029404243 -0.69364566
0.00052380108 -0.02814788 -0.69351852
-0.00076747988 -0.0031323188 -0.69394124
-0.00076939352 -0.0018803924 -0.69386929
-0.0007713068 -0.00062872557 -0.69379741
-0.00077321986 0.00062268192 -0.69372553
-0.00077513349 0.001873833 -0.69365472
-0.00077705726 0.0031247714 -0.69359338
-0.00077914807 0.0043764268 -0.69368082
-0.00078129128 0.0056287739 -0.69381458
-0.0007834076 0.0068813581 -0.69392365
0.0042007938 0.020654764 -0.69380605
0.0091986321 0.024411447 -0.69363344
0.0043367837 -0.066895992 -0.69324231
0.0018278062 -0.06189654 -0.69322962
0.00051967514 -0.025638955 -0.69332975
0.00051766931 -0.024387654 -0.69331074
0.00051566359 -0.02313642 -0.69329172
0.00051365787 -0.021885257 -0.69327271
0.00051165232 -0.020634163 -0.6932537
0.00050963927 -0.019382849 -0.69322443
0.00050769723 -0.018134167 -0.69329172
0.00050563266 -0.01688117 -0.69319177
0.00050355284 -0.015628036 -0.69306988
0.00045772188 0.013124594 -0.69301057
0.0004560356 0.014384258 -0.6934737
0.0017024043 0.016882706 -0.69325292
0.0029493985 0.019388858 -0.69336426
0.0030828072 -0.065615542 -0.69290686
0.001824897 -0.060615599 -0.69288111
0.0018223998 -0.059349265 -0.69268847
0.0018202115 -0.058093447 -0.69261295
0.0018181503 -0.056841873 -0.69258571
0.0018165322 -0.055603947 -0.69272739
0.0018148732 -0.054364312 -0.69285369
0.0018129267 -0.053115822 -0.6928705
0.0018108453 -0.051863406 -0.69283563
0.0018084565 -0.050602511 -0.69268298
0.0018060686 -0.049342163 -0.69253033
0.00050147373 -0.014375349 -0.6929481
0.00049939414 -0.013123063 -0.69282454
0.0004973035 -0.011870946 -0.69268471
0.00049523206 -0.010619728 -0.69257057
0.00049319764 -0.0093696117 -0.69250751
0.00045944052 0.011867508 -0.69260025
0.0080794953 -0.068050116 -0.69231677
0.0030772851 -0.06429188 -0.69211257
0.0018036817 -0.048082378 -0.69237781
0.0018013525 -0.046824612 -0.69224703
0.0017992698 -0.045573547 -0.69221085
0.0017973781 -0.044327311 -0.69224805
0.0017955333 -0.043082081 -0.69230354
0.0017936884 -0.041836649 -0.69235909
0.0017918091 -0.040590249 -0.69240147
0.0017899389 -0.039343901 -0.69244748
0.0017879388 -0.038094621 -0.69244319
0.0017858157 -0.036842823 -0.69239128
0.001783693 -0.035591211 -0.69233936
0.0017815705 -0.034339786 -0.69228745
0.0017771927 -0.031835102 -0.69213152
0.0017748798 -0.030581033 -0.69200492
0.00049116358 -0.0081197238 -0.6924445
0.00048912986 -0.006870064 -0.6923815
0.00048708706 -0.0056205206 -0.69230497
0.00048502721 -0.0043710964 -0.69220352
0.00048297923 -0.0031221109 -0.69211823
0.00048093172 -0.001873433 -0.69203287
0.00046700612 0.0068644714 -0.69201833
0.00046508887 0.00811397 -0.69212341
0.00046317093 0.0093638469 -0.6922285
0.00046126766 0.010614457 -0.69235659
0.0017019594 0.015609862 -0.69226193
0.0029473356 0.018113239 -0.69241166
0.0079331342 0.023110799 -0.69221419
0.0030737529 -0.063011788 -0.69176513
0.0017725676 -0.029327421 -0.69187832
0.0017702562 -0.028074268 -0.69175178
0.0017679457 -0.026821574 -0.6916253
0.0017657564 -0.02557108 -0.69154596
0.0017637216 -0.024322998 -0.69152707
0.0017616868 -0.023074979 -0.69150811
0.0017537833 -0.018086018 -0.69152492
0.0017518182 -0.016838843 -0.69153333
0.00047888461 -0.0006250632 -0.69194752
0.00047684263 0.00062300457 -0.69186866
0.00047480606 0.0018708077 -0.6917972
0.00047277089 0.0031183593 -0.6917271
0.00047083909 0.0043666125 -0.69180828
0.0004689229 0.0056153531 -0.69191331
0.0017025657 0.014349502 -0.69170034
0.0066809789 0.021842176 -0.69164646
0.0055693984 -0.066680059 -0.69102323
0.003070225 -0.061732989 -0.69141811
0.0030667 -0.060455471 -0.69107139
0.0030585853 -0.055466045 -0.69103211
0.0030572242 -0.054230623 -0.6911732
0.0030554258 -0.052987114 -0.69121552
0.0030529478 -0.051731952 -0.69110405
0.0017596523 -0.021827033 -0.69148922
0.0017575873 -0.020578798 -0.69145834
0.0017555152 -0.019330595 -0.69142461
0.0017495247 -0.015588713 -0.69141203
0.001747232 -0.014339022 -0.6912908
0.0017449027 -0.013089486 -0.69115472
0.0017425665 -0.01184039 -0.6910156
0.0017034173 0.013093078 -0.6912396
0.0029451139 0.016840179 -0.69142306
0.0041878964 0.019334517 -0.69134796
0.0054308842 0.020575641 -0.69107962
0.010412488 0.02432619 -0.69115245
0.012909948 0.025588747 -0.69146883
0.0093094772 -0.067910671 -0.69091636
0.0043198899 -0.065419823 -0.69085902
0.003063845 -0.059192091 -0.69087523
0.0030615269 -0.057939578 -0.69080007
0.0030599458 -0.056700967 -0.69089109
0.0030502919 -0.050474223 -0.69095212
0.0030476367 -0.049217053 -0.69080025
0.0030449834 -0.047960438 -0.6906485
0.0030346513 -0.041725755 -0.69055468
0.0030328378 -0.040482394 -0.69059348
0.0030310908 -0.03923976 -0.69064748
0.0030292668 -0.037995964 -0.69068396
0.0030270566 -0.036747351 -0.6906324
0.0030226365 -0.034250677 -0.69052911
0.0017402489 -0.010591905 -0.69088358
0.0017381064 -0.0093448339 -0.69082087
0.0017359643 -0.0080979886 -0.69075817
0.0017337868 -0.0068512284 -0.69068122
0.0017315126 -0.005604431 -0.69056553
0.0017042679 0.011838328 -0.69077951
0.016637601 0.026822206 -0.69095254
0.0043150778 -0.064131618 -0.69040668
0.0030423307 -0.046704367 -0.69049674
0.0030399943 -0.045453567 -0.69041669
0.0030382504 -0.044211663 -0.69047105
0.0030204826 -0.033003233 -0.69049019
0.0030181692 -0.031754244 -0.69041479
0.0030155166 -0.030502096 -0.6902616
0.0030129156 -0.029250985 -0.69011998
0.0017292512 -0.0043580816 -0.69045472
0.0017270554 -0.0031122491 -0.69036978
0.0017248599 -0.0018667232 -0.69028485
0.0017226649 -0.00062150363 -0.69019991
0.0017204706 0.00062340964 -0.69011503
0.0017182769 0.0018680168 -0.69003016
0.0017123908 0.0056022662 -0.69005466
0.0017106464 0.0068479464 -0.69015062
0.0017089015 0.0080939727 -0.69024658
0.001707156 0.0093403449 -0.69034255
0.00170541 0.010587065 -0.69043857
0.0029428981 0.015570745 -0.69043732
0.0041841865 0.01806286 -0.69040811
0.017861886 0.026791036 -0.69009656
0.010534502 -0.067771807 -0.68952173
0.0043103122 -0.062845677 -0.68996131
0.0043061743 -0.061570287 -0.68961608
0.0042917854 -0.052856255 -0.68953234
0.0030103838 -0.028001029 -0.6899941
0.0030078529 -0.026751528 -0.68986827
0.0030054492 -0.025503552 -0.68977141
0.0030033858 -0.024258668 -0.68975258
0.0030013225 -0.023013853 -0.68973374
0.0029992 -0.021768676 -0.68970132
0.0029970726 -0.020523584 -0.6896677
0.002995023 -0.019279107 -0.68965191
0.0029935415 -0.018038113 -0.68976706
0.0029920598 -0.016796706 -0.68988228
0.0029895571 -0.015549577 -0.68976212
0.0029870102 -0.014302664 -0.68963158
0.0017160999 0.0031123471 -0.6899519
0.0017141348 0.0043569328 -0.68995875
0.0029427437 0.014314924 -0.6899361
0.0155068 -0.068986118 -0.68929845
0.0055526029 -0.065259501 -0.68918496
0.0043020411 -0.060296174 -0.68927121
0.0042988146 -0.059035737 -0.68907142
0.0042967917 -0.05779219 -0.6890645
0.0042956863 -0.056560747 -0.68920475
0.0042945808 -0.055328812 -0.68934512
0.0042934744 -0.054096371 -0.68948549
0.0042888639 -0.051601142 -0.68938112
0.0042859437 -0.050346579 -0.68922997
0.0042830245 -0.049092572 -0.68907887
0.046560012 -0.04780063 -0.68927598
0.0029844292 -0.013056072 -0.68949306
0.0029818495 -0.011809981 -0.68935454
0.0029792709 -0.010564392 -0.68921614
0.0029769728 -0.0093201762 -0.68914247
0.0029746594 -0.0080761835 -0.68906516
0.0029427649 0.011810066 -0.68901294
0.0029427609 0.013061685 -0.68947577
0.043985438 0.014371725 -0.68945789
0.0041804863 0.016794655 -0.68947083
0.0054180464 0.019276319 -0.68919426
0.0091415197 0.023011459 -0.68917751
0.014110318 0.025505887 -0.68917429
0.019083148 0.026759943 -0.68924266
0.0067941546 -0.066465512 -0.68881834
0.0055469968 -0.063974515 -0.68873471
0.0042800792 -0.0478388 -0.68892342
0.0042770817 -0.046585009 -0.68875939
0.046532121 -0.046531264 -0.68889242
0.0042743664 -0.045334794 -0.68864065
0.046504259 -0.045263316 -0.68850929
0.0042726272 -0.044095077 -0.68867922
0.0042708879 -0.042855229 -0.68871784
0.0042691492 -0.041615233 -0.68875641
0.0042674113 -0.040375121 -0.68879533
0.0042658141 -0.039136156 -0.6888569
0.0042642159 -0.037896965 -0.68891841
0.0042620138 -0.036652364 -0.68888241
0.0042597177 -0.035407104 -0.68883103
0.046488579 -0.035326876 -0.68851143
0.004257421 -0.034162026 -0.68877971
0.0042553372 -0.032918777 -0.68876266
0.0042530638 -0.031674173 -0.68871492
0.0042501446 -0.030425124 -0.68856251
0.0029721833 -0.0068320953 -0.68895
0.0029697078 -0.0055884225 -0.68883491
0.0029672333 -0.0043451651 -0.68871981
0.0029648687 -0.0031024374 -0.6886301
0.0029625266 -0.0018600471 -0.68854558
0.0029446888 0.0093179224 -0.68853718
0.0029433197 0.010562101 -0.68867964
0.0041772421 0.015531546 -0.68860948
0.0066570248 0.020514624 -0.68896174
0.0078951744 0.021752097 -0.68872941
0.011617702 0.024241539 -0.68868929
0.011754598 -0.067633487 -0.68813258
0.0055413982 -0.062691197 -0.68828511
0.046493374 -0.048971809 -0.68826026
0.046476435 -0.043996781 -0.68812662
0.046469018 -0.041510928 -0.6880753
0.046473771 -0.040275473 -0.68817496
0.046478525 -0.039039664 -0.68827462
0.046483282 -0.037803493 -0.68837434
0.046488039 -0.036566969 -0.68847412
0.0042472263 -0.029176623 -0.68841016
0.0042443103 -0.027928675 -0.68825793
0.0042414828 -0.026681835 -0.68812001
0.0042388029 -0.025436368 -0.68800586
0.0042270198 -0.017990451 -0.68801808
0.0042257477 -0.016752182 -0.68813276
0.0042236615 -0.015510513 -0.688115
0.0029601855 -0.00061796198 -0.68846112
0.0029578449 0.00062381855 -0.68837667
0.0029555359 0.001865314 -0.68829942
0.0029532607 0.0031065657 -0.68822998
0.0029509857 0.004347567 -0.68816054
0.0029493952 0.0055896146 -0.68825072
0.0029478271 0.0068320399 -0.68834627
0.0029462581 0.0080748079 -0.68844169
0.043897785 0.0131012 -0.68805295
0.0041765734 0.014280369 -0.68817335
0.0054123569 0.018007616 -0.68821901
0.020301396 0.026728926 -0.68839091
0.016706657 -0.068804793 -0.68750447
0.0067793624 -0.065099955 -0.68751889
0.005535807 -0.061409563 -0.68783605
0.0055254158 -0.056421213 -0.68752658
0.0055242823 -0.055189446 -0.68763137
0.0055223405 -0.053949412 -0.6876356
0.0055203997 -0.05270936 -0.68763983
0.0055175875 -0.051461168 -0.68753552
0.04645906 -0.042741235 -0.68789858
0.0042367075 -0.02419465 -0.68798655
0.0042345254 -0.022952532 -0.68795311
0.0042323438 -0.02171053 -0.68791968
0.0042301617 -0.02046865 -0.68788624
0.004228292 -0.019228311 -0.68790352
0.0042208387 -0.014266416 -0.68797708
0.0042180163 -0.013022817 -0.68783921
0.0042151958 -0.011779718 -0.6877014
0.0042123762 -0.010537117 -0.68756366
0.0041757505 0.013030291 -0.68771231
0.021516643 0.026697986 -0.68754119
0.0067729708 -0.063818172 -0.68707085
0.0055309683 -0.060137708 -0.68748027
0.0055273585 -0.058880191 -0.68727702
0.0055262684 -0.057649687 -0.68738699
0.0055143014 -0.050209042 -0.68737215
0.046426132 -0.050138671 -0.68723559
0.0055110171 -0.048957508 -0.68720883
0.0055077346 -0.047706567 -0.68704557
0.0054956414 -0.040268861 -0.68701422
0.0054941578 -0.039033085 -0.68707544
0.0054926733 -0.037797086 -0.68713671
0.0054907361 -0.036557853 -0.6871413
0.0054883538 -0.035315748 -0.68709022
0.0054860744 -0.034074459 -0.68705195
0.0054840348 -0.032834738 -0.68704367
0.0054818997 -0.031594504 -0.68702346
0.046373516 -0.014186724 -0.6873045
0.046368942 -0.012946104 -0.68726593
0.046364363 -0.01170562 -0.68722737
0.046359792 -0.010465277 -0.68718886
0.0042097447 -0.0092954263 -0.68745649
0.04635521 -0.0092250733 -0.6871503
0.0042070686 -0.0080540348 -0.68734187
0.0042043934 -0.0068130572 -0.68722731
0.0042017186 -0.0055724937 -0.68711281
0.045090109 0.0093680695 -0.68721527
0.0041749291 0.011781888 -0.68725187
0.042613078 0.015567265 -0.68741757
0.0054070065 0.0167435 -0.68728763
0.0066410829 0.019219985 -0.68710756
0.015308632 0.025433337 -0.6871587
0.024123717 -0.068724699 -0.68681061
0.025353726 -0.068698533 -0.68656683
0.0080137122 -0.066273697 -0.686849
0.0067665875 -0.062538058 -0.68662339
0.045161735 -0.060005117 -0.6866231
0.0055046692 -0.046458036 -0.68690932
0.0055025378 -0.045217678 -0.68688965
0.0055005727 -0.04397871 -0.6868906
0.0054989061 -0.04274207 -0.68692899
0.0054972405 -0.041505285 -0.68696737
0.0054787165 -0.03034853 -0.68687177
0.0054755351 -0.029103108 -0.68672019
0.0054723537 -0.027858233 -0.68656862
0.046349373 -0.015417932 -0.68691742
0.0041990452 -0.0043323431 -0.68699831
0.045094997 -0.0042673755 -0.68695873
0.04508514 -0.0030275784 -0.68683875
0.0041939793 -0.0018534047 -0.68681508
0.045075286 -0.0017882142 -0.68671864
0.0041914931 -0.00061443809 -0.68673104
0.04506544 -0.00054928334 -0.68659866
0.0041890559 0.00062423258 -0.68665487
0.045084666 0.0006896595 -0.68692172
0.0041866614 0.0018626475 -0.68658572
0.0041842684 0.0031008131 -0.68651664
0.0041785622 0.0068162158 -0.68655127
0.004177168 0.0080557447 -0.68664622
0.0041760355 0.009296203 -0.68678445
0.0041751009 0.010537659 -0.68695527
0.043810487 0.011835843 -0.68665379
0.0054046591 0.015491363 -0.68673843
0.0078759063 0.020454561 -0.68687648
0.009109905 0.021688314 -0.68664551
0.012820805 0.024169644 -0.68658876
0.022728905 0.026667124 -0.68669367
0.027677022 0.026668482 -0.6865176
0.022870183 -0.068682849 -0.6863746
0.026582871 -0.068672381 -0.68632323
0.027811149 -0.068646252 -0.6860798
0.012962749 -0.067459062 -0.68637604
0.0067602126 -0.061259609 -0.6861766
0.0054691746 -0.026613912 -0.68641716
0.0054656533 -0.025368541 -0.68622261
0.0054636113 -0.024130404 -0.68621373
0.0054613752 -0.022891484 -0.68618047
0.0054591391 -0.021652682 -0.68614721
0.0054569035 -0.020414002 -0.68611395
0.00545533 -0.01917777 -0.68616396
0.005454265 -0.017943032 -0.68627799
0.0054522017 -0.016704822 -0.68626636
0.046312116 -0.016643032 -0.68633604
0.005449811 -0.015465726 -0.68621361
0.0054473504 -0.01422664 -0.68615204
0.0054443018 -0.012986369 -0.6860162
0.045056041 -0.0055016461 -0.68633527
0.0041818754 0.0043387297 -0.68644756
0.0041799564 0.0055770287 -0.68645632
0.045039929 0.0081189368 -0.68642038
0.0054039122 0.014245437 -0.68639302
0.042531706 0.014299157 -0.68607312
0.0066327704 0.01795272 -0.68604368
0.041311264 0.018020267 -0.68645942
0.010343212 0.022921529 -0.68642312
0.01790029 -0.068624422 -0.68571985
0.021616234 -0.068634644 -0.68587524
0.029038565 -0.068620145 -0.68583655
0.030265115 -0.068594046 -0.68559349
0.008000209 -0.064941153 -0.68586057
0.0067538456 -0.059982821 -0.68573028
0.0067503396 -0.05873251 -0.68557423
0.0067484118 -0.057496209 -0.68557847
0.006746483 -0.056259882 -0.68558264
0.0067445543 -0.055023544 -0.68558681
0.0067426269 -0.05378719 -0.68559104
0.0067406986 -0.052550815 -0.68559521
0.0067387703 -0.051314436 -0.68559945
0.0067358506 -0.050070662 -0.68550271
0.045053996 -0.037648827 -0.68552405
0.045058534 -0.036417402 -0.68562305
0.046276275 -0.017866578 -0.68577564
0.0054412535 -0.011746589 -0.68588036
0.0054382067 -0.0105073 -0.68574464
0.0054355203 -0.0092691146 -0.68565422
0.0054330528 -0.0080315769 -0.68559146
0.0054304637 -0.0067941146 -0.6855132
0.044999275 0.0019252916 -0.68565065
0.0054024565 0.012999057 -0.68595785
0.02393819 0.026636336 -0.68584818
0.02640599 0.026633618 -0.68567276
0.031490806 -0.068567969 -0.68535054
0.032715634 -0.068541914 -0.68510783
0.0092311753 -0.066117764 -0.6852513
0.0079929801 -0.063662082 -0.68540967
0.0067322855 -0.048822563 -0.68534029
0.0067288266 -0.047575787 -0.68518853
0.0067266664 -0.046338495 -0.68516898
0.0067245057 -0.045101278 -0.68514937
0.0067223459 -0.043864135 -0.68512988
0.0067205699 -0.042629495 -0.68514949
0.006718976 -0.041395906 -0.6851877
0.045040406 -0.04134097 -0.68522745
0.0067175436 -0.040163152 -0.68524235
0.04504494 -0.04011061 -0.68532634
0.0067161722 -0.038930546 -0.68530327
0.04504947 -0.038879897 -0.68542522
0.0067148008 -0.037697725 -0.68536419
0.0067132702 -0.036463831 -0.68540895
0.0067108027 -0.035224847 -0.68535805
0.0067066215 -0.032751121 -0.68533319
0.0067042941 -0.031513207 -0.68529654
0.0067004445 -0.030268552 -0.68510419
0.046240482 -0.01908813 -0.68521613
0.044984803 -0.0067288391 -0.68522018
0.005427592 -0.0055566435 -0.68539923
0.0054247207 -0.0043195845 -0.68528533
0.0054218946 -0.0030829611 -0.68517691
0.0054192645 -0.0018467954 -0.68509322
0.0054167025 -0.0006109394 -0.68501812
0.044986788 0.0031614606 -0.68549037
0.044974301 0.0043970514 -0.68533015
0.044961825 0.0056320652 -0.68516999
0.044978626 0.0068709739 -0.68545604
0.0054013645 0.0092749856 -0.68506956
0.0054007368 0.01051334 -0.68523955
0.04372355 0.010575624 -0.6852603
0.0054008188 0.011753855 -0.68549979
0.0066267895 0.016695181 -0.68522143
0.041241139 0.016752621 -0.68526137
0.0078567415 0.01916399 -0.68503338
0.016499965 0.025361212 -0.68515486
0.025144503 0.026605623 -0.68500465
0.01911382 -0.068538457 -0.68487859
0.033939607 -0.068515874 -0.68486524
0.035162717 -0.06848985 -0.68462288
0.01416411 -0.067282461 -0.68459725
0.0079857605 -0.062384702 -0.68495935
0.0079785511 -0.061108999 -0.68450963
0.04380564 -0.061079249 -0.68475842
0.04505197 -0.058626179 -0.68498409
0.045032736 -0.047503218 -0.68496102
0.04501893 -0.046255387 -0.6847809
0.045017902 -0.04255398 -0.68485504
0.045007192 -0.035141993 -0.68487179
0.0066964664 -0.029024024 -0.68489856
0.0066924896 -0.027780244 -0.68469304
0.046204757 -0.020307688 -0.68465751
0.044960808 -0.014134374 -0.68467492
0.044956334 -0.012898504 -0.68463665
0.044951856 -0.011662773 -0.68459839
0.044947371 -0.010427181 -0.68456012
0.044942893 -0.0091917263 -0.68452185
0.0054141907 0.0006246515 -0.68494934
0.0054116794 0.0018599943 -0.68488061
0.0054091695 0.003095089 -0.68481189
0.0054066591 0.0043299356 -0.68474311
0.0054041496 0.0055645346 -0.68467438
0.0054029031 0.0068004746 -0.68476564
0.0054019927 0.0080372449 -0.68489969
0.043681663 0.0080947317 -0.68454212
0.042448681 0.013035391 -0.68470204
0.0066240737 0.014208863 -0.68453395
0.0066254311 0.015451396 -0.68487751
0.0090874378 0.020394862 -0.68480366
0.010318315 0.021627007 -0.68464029
0.01155676 0.022874707 -0.68496007
0.014018389 0.024101257 -0.68458831
0.036384966 -0.068463847 -0.68438059
0.037606362 -0.068437867 -0.68413854
0.022790637 -0.067215905 -0.68404621
0.024024209 -0.067212887 -0.68403345
0.0092148213 -0.064780526 -0.68418306
0.043780521 -0.062276017 -0.68433499
0.007971351 -0.059834968 -0.68406045
0.043770436 -0.05979855 -0.68423885
0.044992074 -0.044995163 -0.68440235
0.044982608 -0.04375321 -0.68428826
0.0066885157 -0.026537212 -0.68448764
0.0066848728 -0.025296165 -0.68431604
0.006683128 -0.024062572 -0.68433869
0.0066813836 -0.022828896 -0.6843614
0.0066796374 -0.021595133 -0.68438393
0.046169087 -0.021525262 -0.68409985
0.0066773491 -0.020359635 -0.68435085
0.0066758078 -0.0191264 -0.68439442
0.0066730678 -0.017889794 -0.68431503
0.0066703283 -0.016653473 -0.68423569
0.0066678366 -0.01541801 -0.68418169
0.0066657183 -0.014183537 -0.68416595
0.00666358 -0.012949082 -0.68414825
0.0066602994 -0.011712681 -0.68401319
0.044935547 -0.0079559004 -0.6844399
0.043660887 -0.00054916868 -0.68400103
0.043678641 0.00068506942 -0.68430996
0.0066227186 0.012967573 -0.68419075
0.041168388 0.015488314 -0.68401992
0.039945312 0.019196277 -0.6843093
0.037461013 0.021654693 -0.68410468
0.036226526 0.022887824 -0.68413645
0.034991942 0.024121059 -0.68416822
0.033757243 0.025354406 -0.68420005
0.03882689 -0.068411902 -0.68389666
0.021540992 -0.067168936 -0.68355018
0.02524928 -0.067187354 -0.68379164
0.026473492 -0.067161836 -0.68355
0.0092068128 -0.063504688 -0.68373436
0.043755434 -0.063471302 -0.68391216
0.0079643941 -0.058564328 -0.68363196
0.0079622883 -0.057330146 -0.6836198
0.0079601826 -0.056096006 -0.68360758
0.0079580769 -0.054861914 -0.68359542
0.0079559712 -0.05362786 -0.68358326
0.0079538655 -0.05239385 -0.68357104
0.0079518547 -0.051160496 -0.68356699
0.0079499399 -0.049927756 -0.68357116
0.044967979 -0.048666667 -0.68394613
0.0079319058 -0.038828537 -0.68354011
0.0079306448 -0.037598874 -0.68360072
0.0079293847 -0.036368996 -0.68366134
0.0079272613 -0.035135075 -0.68364763
0.0079245996 -0.033898905 -0.68358743
0.044944368 -0.033860642 -0.68394566
0.046133477 -0.022740856 -0.68354309
0.044906568 -0.015350307 -0.68381894
0.0066570202 -0.010476768 -0.68387818
0.0066542476 -0.0092420448 -0.68379509
0.0066491039 -0.0067739044 -0.68367022
0.006646533 -0.0055401726 -0.68360788
0.006643963 -0.0043066661 -0.68354547
0.043633644 0.0068519772 -0.6837588
0.043636959 0.0093205087 -0.6838724
0.006620273 0.010489142 -0.68353236
0.0066204797 0.011725962 -0.68375653
0.0078455005 0.017898168 -0.683882
0.012765153 0.022828083 -0.68350327
0.020293171 -0.067122042 -0.68305492
0.02769685 -0.06713634 -0.68330854
0.028919347 -0.067110866 -0.6830672
0.010440208 -0.065944918 -0.6834783
0.0091988165 -0.062230539 -0.68328625
0.044942729 -0.057253812 -0.68335301
0.0079469373 -0.048688345 -0.68348187
0.0079446835 -0.04745372 -0.6834569
0.007942494 -0.046219558 -0.68343741
0.0079403045 -0.044985469 -0.68341798
0.0079381149 -0.043751448 -0.68339849
0.0079359272 -0.042517506 -0.68337911
0.007934426 -0.041287202 -0.68341893
0.0079331668 -0.040057983 -0.68347955
0.0079209572 -0.032658901 -0.68344259
0.0079136761 -0.030180473 -0.68315309
0.043614939 -0.0054781251 -0.68315816
0.043627899 -0.004247169 -0.68339187
0.0066412431 -0.0030733154 -0.68346763
0.043618347 -0.0030138153 -0.68327308
0.043624979 -0.0017815506 -0.6834076
0.0066209226 0.0080192173 -0.68319416
0.006620598 0.0092538744 -0.68336326
0.042364743 0.011776321 -0.68331641
0.0078396127 0.015411647 -0.68302673
0.007841575 0.016652049 -0.68336874
0.039877772 0.017930552 -0.6831187
0.038662739 0.020404438 -0.6834957
0.01152877 0.021583058 -0.68318486
0.036182389 0.021626115 -0.68326575
0.03494937 0.022857726 -0.68329746
0.033716235 0.024089444 -0.68332916
0.017684376 0.025289506 -0.68316275
0.032483 0.025321273 -0.68336087
0.015359268 -0.067106768 -0.68282759
0.019047162 -0.067075208 -0.68256032
0.030140992 -0.0670854 -0.6828261
0.031361781 -0.067059964 -0.68258512
0.010423513 -0.064620696 -0.68251377
0.0091908295 -0.060958043 -0.68283868
0.042440571 -0.060895011 -0.68267286
0.043657795 -0.058416098 -0.68250865
0.044903412 -0.049826678 -0.68293422
0.043627899 -0.039947111 -0.68250114
0.043632209 -0.038721453 -0.68259925
0.043636519 -0.037495438 -0.68269736
0.044850022 -0.032559745 -0.68253982
0.0079095466 -0.028940244 -0.68296587
0.0079052178 -0.02769999 -0.68276149
0.0079008928 -0.026460486 -0.68255728
0.0078912154 -0.020304702 -0.68256825
0.04484082 -0.016558906 -0.6827879
0.043561947 0.0019145132 -0.6825124
0.042330801 0.008070657 -0.68267411
0.0078376513 0.014172485 -0.68268502
0.041089859 0.01422649 -0.68268257
0.0090650888 0.019108331 -0.68297172
0.010293546 0.020339197 -0.68286675
0.01520902 0.024033269 -0.68259943
0.031211894 0.025288222 -0.68252379
0.017802963 -0.067028441 -0.68206644
0.032581709 -0.067034535 -0.68234438
0.033800796 -0.067009129 -0.68210375
0.010414735 -0.063348077 -0.68206722
0.042416368 -0.062088244 -0.68225205
0.0091828518 -0.059687212 -0.6823917
0.043623466 -0.041172296 -0.68240106
0.043600131 -0.036235247 -0.68215871
0.007897364 -0.025224257 -0.68242186
0.0078956643 -0.023994073 -0.68244439
0.0078939646 -0.022763807 -0.68246692
0.0078922659 -0.021533461 -0.68248951
0.0078870179 -0.019068055 -0.68237478
0.0078841457 -0.017835097 -0.68229586
0.044805959 -0.01777604 -0.68222719
0.0078812744 -0.016602429 -0.68221694
0.0078786779 -0.015370578 -0.68216187
0.0078765368 -0.014139744 -0.68214619
0.043554507 -0.01285127 -0.6820274
0.0078722565 -0.011678249 -0.6821149
0.0078692241 -0.0104464 -0.68202186
0.043546367 -0.0066996813 -0.68205339
0.043551292 0.0056076283 -0.6824376
0.042295299 0.0068330737 -0.68206996
0.0078356927 0.012934562 -0.6823436
0.013968427 0.022781659 -0.68205261
0.033675335 0.022827702 -0.68246049
0.032443669 0.024057908 -0.68249214
0.016560569 -0.066981748 -0.68157339
0.035019025 -0.066983745 -0.68186325
0.036236398 -0.066958368 -0.68162298
0.011643006 -0.065772966 -0.68171448
0.022704471 -0.065738156 -0.68151873
0.042392194 -0.063280001 -0.68183172
0.010405966 -0.062077116 -0.68162125
0.042396586 -0.059604406 -0.68199688
0.0091748862 -0.058418039 -0.68194526
0.0091698505 -0.057168737 -0.6817165
0.009167728 -0.055938028 -0.68170434
0.044834007 -0.055887967 -0.68172967
0.0091656074 -0.054707371 -0.68169224
0.009163484 -0.053476751 -0.68168008
0.0091613643 -0.052246179 -0.68166798
0.0091592427 -0.051015649 -0.68165582
0.044839032 -0.05098325 -0.6819253
0.009156852 -0.049783695 -0.68162364
0.0091540348 -0.048549604 -0.68155968
0.0091519803 -0.047319677 -0.68155247
0.0091501903 -0.046091106 -0.68156499
0.0091483984 -0.044862486 -0.68157738
0.0091466075 -0.043633826 -0.68158984
0.0091448156 -0.042405117 -0.68160224
0.04358945 -0.042368371 -0.68183833
0.0091436617 -0.041179229 -0.68166214
0.0091424882 -0.039953057 -0.68172073
0.0091413148 -0.038726665 -0.68177927
0.0091401413 -0.037500061 -0.68183786
0.0091389688 -0.036273256 -0.68189651
0.0091354027 -0.035037056 -0.68177652
0.0091310618 -0.033798423 -0.68159866
0.044792421 -0.030061126 -0.68172282
0.044780761 -0.028825061 -0.68157524
0.044771545 -0.018991346 -0.68167347
0.043540228 -0.014076388 -0.68177319
0.043550123 -0.011620253 -0.68198943
0.043545738 -0.010389376 -0.68195152
0.0078663891 -0.0092151193 -0.68194598
0.043539688 -0.0091582835 -0.68188739
0.0078637153 -0.0079842731 -0.68188393
0.043531917 -0.0079271086 -0.68179637
0.0078611411 -0.0067537376 -0.68183059
0.0078587346 -0.0055235117 -0.68179172
0.007856328 -0.0042934255 -0.68175286
0.0078539224 -0.0030634808 -0.68171406
0.0078497743 -0.0018332687 -0.68152392
0.042283271 0.00068051415 -0.68171805
0.0078333197 0.0092323255 -0.68162543
0.042268258 0.0092888763 -0.68169707
0.0078334883 0.010464707 -0.68181056
0.04228114 0.010522339 -0.68193638
0.0078335637 0.011697619 -0.68198764
0.0090498151 0.016609153 -0.68152601
0.039810468 0.016669223 -0.68193215
0.0090523781 0.017847432 -0.68186653
0.038552873 0.019115984 -0.68151879
0.012734098 0.021539293 -0.68173558
0.031174224 0.024026448 -0.6816572
0.018873947 0.025234284 -0.68161613
0.029943898 0.025255252 -0.68168873
0.037452925 -0.066933013 -0.68138283
0.038668595 -0.066907682 -0.68114293
0.021466259 -0.065713122 -0.6812408
0.023925498 -0.065713234 -0.68127871
0.025145674 -0.065688327 -0.6810388
0.042368051 -0.064470299 -0.68141192
0.010397211 -0.060807813 -0.68117583
0.043555498 -0.043562476 -0.68127656
0.043541398 -0.034959059 -0.68127042
0.0091271745 -0.03256204 -0.68145466
0.00912329 -0.031326186 -0.68131071
0.044771295 -0.031274822 -0.68137151
0.0091194063 -0.030090854 -0.68116683
0.0091155237 -0.028856045 -0.681023
0.044768836 -0.027589362 -0.68142354
0.044756923 -0.026354218 -0.68127197
0.044745013 -0.025119618 -0.6811204
0.044737197 -0.02020468 -0.68112063
0.0078461515 -0.00060378277 -0.68137932
0.042269986 -0.00054909469 -0.6814723
0.0078433352 0.00062524574 -0.68130475
0.0078405207 0.0018540053 -0.68123025
0.0078377062 0.0030824961 -0.6811558
0.0078348927 0.0043107183 -0.6810813
0.043469261 0.0043680798 -0.68112159
0.007832692 0.0055391048 -0.68106008
0.0078329807 0.0067695663 -0.68125534
0.0078331511 0.0080006132 -0.68144047
0.041011639 0.01296959 -0.68135047
0.0090468517 0.015371425 -0.68115544
0.010268906 0.019058039 -0.6811024
0.011500926 0.020298086 -0.68141884
0.037316289 0.020340635 -0.68142599
0.034835801 0.02155361 -0.6810388
0.039883424 -0.066882364 -0.68090308
0.04109741 -0.06685707 -0.68066353
0.042319853 -0.066846505 -0.68057388
0.020222705 -0.065667443 -0.68074894
0.026364995 -0.065663442 -0.68079913
0.027583469 -0.065638572 -0.68055958
0.042343933 -0.065659128 -0.68099266
0.011626328 -0.064461641 -0.68085247
0.041083798 -0.060711894 -0.68059999
0.010388465 -0.059540171 -0.680731
0.043552253 -0.057049185 -0.68088925
0.044753138 -0.054561935 -0.68052977
0.044774849 -0.052136417 -0.68091941
0.043523733 -0.0472087 -0.68068802
0.043523706 -0.045982789 -0.68071818
0.043521591 -0.044754617 -0.68071568
0.0091111287 -0.027620191 -0.68084079
0.0091064554 -0.02638419 -0.68063772
0.0091031697 -0.025152748 -0.68053818
0.0091015138 -0.023925954 -0.68056059
0.044733334 -0.023885692 -0.68097246
0.0091000125 -0.02269946 -0.6805945
0.044722728 -0.022652842 -0.68084079
0.0090994323 -0.021475021 -0.68069732
0.044712134 -0.021420473 -0.68070924
0.0090988511 -0.020250209 -0.6808002
0.0090943389 -0.019016808 -0.68060893
0.043476734 -0.015283289 -0.68074828
0.042235412 -0.0017769211 -0.68088335
0.043453388 0.0031380586 -0.68084222
0.042215738 0.005591833 -0.68075532
0.040987313 0.0080467146 -0.68081635
0.0090433955 0.014134269 -0.68074799
0.039737552 0.01541 -0.68064958
0.015166607 0.022735432 -0.68060809
0.032370944 0.022774193 -0.68092126
0.016400035 0.023976307 -0.68092412
0.029906981 0.023994343 -0.68080378
0.020084769 0.025212727 -0.68097901
0.02867901 0.025222363 -0.68085575
0.018980948 -0.065621816 -0.68025768
0.028801091 -0.065613724 -0.6803202
0.030017866 -0.065588892 -0.68008101
0.011616785 -0.063192211 -0.68040818
0.041060504 -0.06190161 -0.68018174
0.010379732 -0.05827418 -0.68028677
0.042273663 -0.058207538 -0.68005097
0.044742469 -0.053323876 -0.68039733
0.010344251 -0.038624316 -0.6800099
0.010343184 -0.037400886 -0.68006819
0.010341167 -0.036173929 -0.68006402
0.043482818 -0.033686191 -0.6803844
0.0090888776 -0.017782237 -0.68034643
0.0090851039 -0.016551685 -0.68021017
0.0090823965 -0.015323422 -0.68015379
0.0090802349 -0.014096211 -0.68013823
0.0090780733 -0.012869055 -0.68012267
0.0090762582 -0.011642398 -0.68013304
0.0090756221 -0.010417058 -0.68023181
0.0090728253 -0.0091891754 -0.68016875
0.0090703554 -0.007961805 -0.68013006
0.0090678856 -0.0067345756 -0.68009138
0.0090654157 -0.0055074845 -0.6800527
0.0090629477 -0.0042805341 -0.68001407
0.042200889 -0.0030026268 -0.68029529
0.040963568 0.0068142633 -0.6803894
0.0090398323 0.010439495 -0.68003863
0.0090396274 0.011668433 -0.68017018
0.040932991 0.011717374 -0.68001133
0.0090399431 0.012898592 -0.68034101
0.013934331 0.021495713 -0.68029243
0.021293335 0.025191212 -0.68034315
0.027417218 0.025189552 -0.68002474
0.012839618 -0.065601893 -0.67995971
0.017740993 -0.065576263 -0.67976713
0.031233793 -0.065564074 -0.67984194
0.032448865 -0.065539271 -0.6796031
0.041037235 -0.063089862 -0.67976391
0.011607253 -0.061924435 -0.6799643
0.011597737 -0.060658321 -0.67952108
0.041031718 -0.059411526 -0.67976964
0.010371009 -0.057009842 -0.67984313
0.010368577 -0.055780925 -0.67981166
0.01036644 -0.054553684 -0.67979962
0.010364302 -0.05332648 -0.67978752
0.01036212 -0.052099094 -0.67977244
0.010359199 -0.050868127 -0.67970884
0.010356276 -0.049637392 -0.67964524
0.010353357 -0.048406892 -0.6795817
0.043461598 -0.048365336 -0.67968577
0.010350461 -0.04717673 -0.67951977
0.010348696 -0.045951817 -0.67953211
0.010346932 -0.04472686 -0.67954451
0.010345169 -0.043501854 -0.67955691
0.010344733 -0.042282235 -0.67965657
0.010345601 -0.041067436 -0.67984194
0.010345317 -0.039847534 -0.67995161
0.0422225 -0.039784949 -0.67969924
0.04222659 -0.038564302 -0.67979652
0.010336808 -0.034939066 -0.67990583
0.010332353 -0.033704463 -0.67974126
0.04341976 -0.027515398 -0.67955047
0.043413434 -0.016486568 -0.67972654
0.04218521 -0.0054545742 -0.67997956
0.04217596 -0.0042271721 -0.6798619
0.0090603288 -0.0030536721 -0.67996407
0.009055688 -0.0018265826 -0.67976236
0.009051051 -0.00060022087 -0.67956078
0.042170662 0.0019053217 -0.67993402
0.0090388451 0.0079818079 -0.67967051
0.0090393377 0.0092103193 -0.67985451
0.040926859 0.0092616538 -0.67984456
0.010248845 0.016562091 -0.67951286
0.010253017 0.017798457 -0.67991889
0.038458172 0.01784171 -0.67981029
0.037217729 0.019059893 -0.67959058
0.012702825 0.020256547 -0.67995679
0.022499656 0.025169734 -0.67970842
0.016502829 -0.065530777 -0.67927736
0.033663098 -0.065514483 -0.67936438
0.034876488 -0.065489717 -0.67912585
0.041002527 -0.065480754 -0.6791243
0.01282331 -0.064303353 -0.67919934
0.041013997 -0.064276665 -0.67934668
0.011588231 -0.059393845 -0.6790784
0.043447215 -0.055688739 -0.6792776
0.043433871 -0.054449052 -0.67909944
0.042206235 -0.040993415 -0.67940593
0.042204175 -0.037319869 -0.67946708
0.043420345 -0.032413609 -0.67943746
0.010323051 -0.031235831 -0.67938608
0.010318404 -0.030002486 -0.67920864
0.043389145 -0.029943381 -0.67901033
0.01031403 -0.028770536 -0.67904907
0.043409489 -0.028733211 -0.6793592
0.04340817 -0.026283665 -0.67939967
0.043396596 -0.02505248 -0.67924899
0.043385305 -0.023821997 -0.67910284
0.010300255 -0.020195996 -0.67904127
0.042163327 -0.012804394 -0.67943799
0.042159036 -0.011578058 -0.67940032
0.042154197 -0.010351722 -0.67935383
0.042146642 -0.0091249673 -0.67926347
0.042139091 -0.0078985384 -0.67917323
0.042131536 -0.0066724354 -0.67908293
0.0090464158 0.00062541378 -0.67935932
0.040898446 0.00067599327 -0.67914569
0.0090431953 0.0018506108 -0.67926401
0.0090402588 0.0030755601 -0.67918992
0.0090373205 0.0043002418 -0.67911583
0.042136472 0.0043553677 -0.67944568
0.0090376446 0.0055266502 -0.67928678
0.040886756 0.0055761151 -0.6790812
0.0090382779 0.0067539071 -0.67948103
0.039662194 0.014154537 -0.6793254
0.010244681 0.015327202 -0.67910737
0.011470374 0.019015014 -0.67949289
0.035984833 0.020281082 -0.67949826
0.016359732 0.022689398 -0.67916971
0.017591111 0.023927635 -0.67948437
0.023703733 0.025148297 -0.67907488
0.024928749 0.025150279 -0.67907381
0.026158353 0.025156675 -0.67919183
0.015266458 -0.065485351 -0.67878824
0.036089022 -0.065464966 -0.67888749
0.037300721 -0.06544023 -0.67864925
0.038529895 -0.065446652 -0.678734
0.039764076 -0.065460779 -0.67889881
0.021392031 -0.064267106 -0.67894703
0.022611421 -0.064249933 -0.67878419
0.023827583 -0.064225622 -0.67854601
0.012813009 -0.063037105 -0.67875713
0.039735246 -0.060529884 -0.67853969
0.011578737 -0.058131013 -0.67863631
0.04342353 -0.053213686 -0.67896837
0.043413103 -0.051978689 -0.67883581
0.043402676 -0.050744165 -0.67870325
0.043399651 -0.049518563 -0.67868638
0.042173535 -0.042184394 -0.67884815
0.042147484 -0.036047306 -0.67858577
0.043368828 -0.031152312 -0.67866182
0.010309909 -0.027539836 -0.67890614
0.010305266 -0.02630832 -0.67872888
0.010302344 -0.025081633 -0.67866486
0.010301448 -0.023859868 -0.67873436
0.010301051 -0.022638947 -0.67883664
0.043374989 -0.022592548 -0.67897195
0.010300653 -0.021417657 -0.67893893
0.043354373 -0.020135073 -0.67871034
0.01029571 -0.018966328 -0.67887014
0.043344069 -0.018907046 -0.67857957
0.0102898 -0.017734926 -0.67860901
0.043350793 -0.017686436 -0.67871535
0.04212077 -0.014015278 -0.67872083
0.010278493 -0.011612632 -0.67850614
0.010275787 -0.0091658542 -0.67858481
0.040889345 -0.00054902118 -0.67896217
0.042090956 0.0031261351 -0.67868024
0.039638381 0.006795546 -0.6787172
0.039651114 0.0080229035 -0.67896855
0.040866572 0.010473128 -0.67887557
0.01024052 0.014093785 -0.67870229
0.038393278 0.016586475 -0.67862868
0.015126744 0.021448409 -0.67873174
0.033492528 0.021478092 -0.67871624
0.031036334 0.022694526 -0.67859954
0.014031872 -0.065439992 -0.67829984
0.020152714 -0.064222619 -0.67845839
0.025042901 -0.06420134 -0.67830813
0.02625737 -0.064177059 -0.67807025
0.012802723 -0.061772499 -0.6783154
0.039712846 -0.06171611 -0.67812395
0.011569254 -0.056869831 -0.67819476
0.042171769 -0.056846026 -0.67844325
0.042140882 -0.04337341 -0.67829126
0.011541649 -0.039741613 -0.67817539
0.011540962 -0.038522493 -0.6782496
0.011540001 -0.037302218 -0.67830759
0.011536201 -0.036072869 -0.67819881
0.011531578 -0.034841411 -0.67804146
0.010283894 -0.016504472 -0.67834806
0.010279846 -0.015277715 -0.67820954
0.010279395 -0.014056377 -0.67830837
0.010278945 -0.012834684 -0.67840725
0.010271368 -0.0079398807 -0.67842168
0.010268499 -0.0067155105 -0.678361
0.010265969 -0.0054915403 -0.67832255
0.010263438 -0.0042677084 -0.67828411
0.010260376 -0.0030438576 -0.6782105
0.010255393 -0.0018199307 -0.67800981
0.040856082 -0.0017723255 -0.67837751
0.010239117 0.0091884276 -0.67809284
0.039592724 0.0092345802 -0.67800212
0.010239933 0.010414415 -0.678276
0.010239346 0.011639466 -0.67836607
0.010238715 0.012864793 -0.67845345
0.039587129 0.012903949 -0.67800635
0.012669625 0.018977346 -0.67807531
0.013894847 0.02020829 -0.67826962
0.026118632 0.023893349 -0.67810988
0.027346706 0.023899512 -0.67822754
0.028581008 0.023910526 -0.67848283
0.014016052 -0.064152941 -0.67762917
0.018915184 -0.064178206 -0.67797047
0.027470998 -0.064152814 -0.67783266
0.028683783 -0.06412857 -0.6775952
0.039693113 -0.064124569 -0.67772049
0.039690476 -0.062900878 -0.67770869
0.012792449 -0.06050954 -0.67787427
0.039675746 -0.059219908 -0.67755687
0.040909715 -0.058014993 -0.67778069
0.01156278 -0.055624694 -0.6779294
0.042130139 -0.055569787 -0.67780483
0.011560629 -0.05440085 -0.67791742
0.042120136 -0.054336645 -0.67767519
0.011557838 -0.053174112 -0.67786801
0.042110123 -0.053103965 -0.67754549
0.011554813 -0.051946491 -0.67780477
0.011551788 -0.050719097 -0.67774153
0.011548764 -0.049491931 -0.67767829
0.011545741 -0.048264999 -0.67761511
0.011542716 -0.047038294 -0.67755187
0.011540082 -0.045813359 -0.67751145
0.011538344 -0.044592034 -0.67752379
0.042108294 -0.044560485 -0.67773533
0.011538077 -0.043376192 -0.67762244
0.011539266 -0.042165328 -0.67780668
0.011540459 -0.0409538 -0.67799103
0.042090937 -0.034778036 -0.67770672
0.011526956 -0.03361053 -0.67788422
0.011522185 -0.032379795 -0.67771816
0.011517237 -0.031149169 -0.67754155
0.04205969 -0.015216872 -0.67770517
0.040822882 -0.002993525 -0.67779392
0.010250412 -0.00059672847 -0.6778093
0.010245435 0.00062575069 -0.67760885
0.040811088 0.0043428084 -0.67779207
0.010236349 0.0055142604 -0.67752278
0.010237321 0.0067383293 -0.67771602
0.010238293 0.0079630958 -0.67790931
0.037119702 0.017786032 -0.67776501
0.035890128 0.019004118 -0.67767322
0.034660902 0.020221867 -0.67758149
0.017541973 0.022636 -0.6775111
0.018774996 0.023876403 -0.67797226
0.021208256 0.023866007 -0.67756265
0.022437004 0.023874866 -0.67775691
0.023663782 0.023881026 -0.67787457
0.024890993 0.023887187 -0.67799222
0.017679442 -0.064133845 -0.67748326
0.029895728 -0.064104356 -0.67735791
0.031106828 -0.064080149 -0.6771208
0.035993539 -0.064073786 -0.6771279
0.037224174 -0.064087547 -0.67729193
0.038455401 -0.064101309 -0.67745602
0.014005896 -0.062893726 -0.67723233
0.01278219 -0.059248224 -0.67743373
0.042099975 -0.051871575 -0.67741346
0.042089827 -0.050639667 -0.6772815
0.042079683 -0.049408235 -0.67714959
0.042069543 -0.048177287 -0.67701775
0.042075749 -0.045745615 -0.67718029
0.011512291 -0.02991919 -0.67736506
0.011507347 -0.028689848 -0.67718863
0.011502406 -0.027461151 -0.67701232
0.042036112 -0.027414482 -0.67701197
0.042055707 -0.026206583 -0.67735881
0.042055558 -0.024985706 -0.67738777
0.042044654 -0.023758652 -0.67724347
0.011495907 -0.022578744 -0.67708778
0.04203463 -0.022532584 -0.67711335
0.01149569 -0.021360587 -0.67718959
0.011495472 -0.020142063 -0.67729139
0.042025585 -0.020087121 -0.67703032
0.011490962 -0.018916106 -0.67714018
0.04202836 -0.018867888 -0.67710632
0.042028937 -0.017647462 -0.67714703
0.042023391 -0.016424496 -0.67708904
0.011473706 -0.0091430731 -0.67704028
0.040789738 -0.0042126253 -0.67721128
0.010240461 0.001847507 -0.67740858
0.040789872 0.0018961995 -0.67737514
0.010235898 0.0030686639 -0.67723542
0.040791839 0.0031184673 -0.67744005
0.010235377 0.0042908899 -0.67732966
0.0395643 0.0055604745 -0.67741543
0.038319703 0.0067769205 -0.67705315
0.038322158 0.007999219 -0.67713088
0.039534498 0.01044281 -0.67703837
0.039536104 0.011665215 -0.67709911
0.011435333 0.015283241 -0.67707145
0.038321633 0.015332807 -0.67732793
0.011440194 0.016514404 -0.67747456
0.012652292 0.017727183 -0.67704368
0.016310632 0.021397293 -0.67705059
0.02730515 0.022639973 -0.67714864
0.028531699 0.022645907 -0.677266
0.029758679 0.022651846 -0.67738348
0.01998014 0.023857053 -0.67736566
0.015213297 -0.06404531 -0.67651093
0.016445478 -0.064089544 -0.67699671
0.032317083 -0.064055964 -0.67688376
0.033534095 -0.064046286 -0.67680013
0.034763519 -0.064060032 -0.67696398
0.013995755 -0.061636005 -0.67683595
0.012771945 -0.057988547 -0.67699385
0.012762281 -0.056733035 -0.67658466
0.040831383 -0.056686249 -0.6765151
0.042059407 -0.04694682 -0.6768859
0.040828604 -0.039624117 -0.67692024
0.040819205 -0.038395956 -0.67679662
0.012729595 -0.037200995 -0.67650032
0.04203454 -0.03351206 -0.67682999
0.042016547 -0.028621145 -0.67666548
0.011497467 -0.026233086 -0.67683613
0.011496341 -0.025013953 -0.67688429
0.011496124 -0.023796532 -0.67698604
0.042024609 -0.02130699 -0.67698324
0.011484605 -0.017687859 -0.67688036
0.011479037 -0.016461665 -0.67666662
0.011476666 -0.01524049 -0.6766414
0.011475549 -0.014020941 -0.67669016
0.011475272 -0.012802153 -0.67678857
0.040772885 -0.012754805 -0.67670548
0.011474998 -0.011583011 -0.67688704
0.040778488 -0.01153618 -0.67683083
0.011474486 -0.010363301 -0.67697155
0.040771633 -0.010313951 -0.67674935
0.040764291 -0.0090919072 -0.67665976
0.011469008 -0.0079198908 -0.67687786
0.040756952 -0.0078701861 -0.67657018
0.011464315 -0.0066972976 -0.67671555
0.011460432 -0.0054756762 -0.67660111
0.040756643 -0.0054296306 -0.6766296
0.011457839 -0.0042549474 -0.67656285
0.039524026 0.00067150634 -0.67659271
0.039516002 0.0043329275 -0.67655516
0.011432719 0.011610651 -0.67657149
0.011432244 0.012832736 -0.67665845
0.011431769 0.014055133 -0.67674541
0.038298905 0.014101844 -0.67689186
0.0370644 0.016537827 -0.67671973
0.013864852 0.018941147 -0.67671049
0.015080972 0.020160271 -0.67659074
0.032164674 0.021407263 -0.67654139
0.023620941 0.022615323 -0.67659163
0.024848731 0.022623902 -0.67678815
0.026077243 0.022632485 -0.67698479
0.020083191 -0.062787503 -0.67618328
0.021306936 -0.062797301 -0.67630786
0.022519113 -0.062773593 -0.67607147
0.03715229 -0.062747613 -0.67601937
0.038389109 -0.06277398 -0.67632246
0.038373329 -0.061531726 -0.67607856
0.013985624 -0.060379744 -0.67644
0.038394835 -0.060348965 -0.6764918
0.013975505 -0.059124947 -0.67604446
0.012755253 -0.055490453 -0.67631507
0.040821645 -0.055455241 -0.67638594
0.012748622 -0.054250531 -0.67606646
0.040811915 -0.054224707 -0.67625684
0.040802184 -0.052994642 -0.67612785
0.012728834 -0.040840778 -0.67615014
0.040801406 -0.040816106 -0.67643702
0.012730344 -0.039631847 -0.67633361
0.012731502 -0.038421199 -0.67649841
0.012724707 -0.035972361 -0.6763438
0.012719819 -0.034744289 -0.67618728
0.012714935 -0.033516791 -0.67603087
0.04200447 -0.032269463 -0.67637706
0.042002846 -0.031049524 -0.67638224
0.042003378 -0.0298311 -0.67642212
0.040749609 -0.0066487901 -0.67648059
0.011454256 -0.003034093 -0.67646593
0.011448932 -0.0018133133 -0.67626631
0.011443613 -0.00059325394 -0.67606682
0.039518833 -0.0005489483 -0.67647052
0.011439238 0.0030657081 -0.67615247
0.039497454 0.0031108274 -0.67620432
0.011434948 0.0042845085 -0.67601383
0.011431464 0.0079444228 -0.67615241
0.011432696 0.0091666477 -0.67634016
0.038265817 0.009207651 -0.67616957
0.011433193 0.010388882 -0.67648453
0.038253538 0.01164467 -0.67602128
0.038276207 0.012872467 -0.67645627
0.03704058 0.015306406 -0.67624938
0.012635014 0.016480817 -0.67601508
0.035828236 0.017749999 -0.6764679
0.034594655 0.018962163 -0.67624837
0.033361871 0.020173537 -0.67602909
0.028480954 0.02138461 -0.67601538
0.029709136 0.021392819 -0.67621154
0.030938039 0.021401033 -0.67640781
0.021167513 0.022598181 -0.6761989
0.022393869 0.022606749 -0.67639518
0.015197617 -0.062768243 -0.6759001
0.018849859 -0.062744252 -0.67569864
0.023730449 -0.062749892 -0.67583525
0.024940947 -0.062726215 -0.67559916
0.033469189 -0.062707409 -0.67552936
0.034696292 -0.062720805 -0.67569268
0.035923988 -0.062734209 -0.67585599
0.015186799 -0.061513055 -0.67550522
0.039562289 -0.057834614 -0.67565256
0.013958788 -0.05542323 -0.6755175
0.012745207 -0.053024877 -0.67598838
0.012741795 -0.051799506 -0.67591029
0.04079235 -0.051764913 -0.67599708
0.012738382 -0.050574422 -0.67583227
0.040782481 -0.050535601 -0.67586565
0.01273497 -0.049349621 -0.67575425
0.040772606 -0.049306773 -0.67573428
0.01273156 -0.048125099 -0.67567629
0.040762745 -0.048078418 -0.67560303
