# .PCD v0.7 - Point Cloud Data file format
VERSION 0.7
FIELDS x y z
SIZE 4 4 4
TYPE F F F
COUNT 1 1 1
WIDTH 1352
HEIGHT 1
VIEWPOINT 0 0 0 1 0 0 0
POINTS 1352
DATA ascii
0.14994502 0.048111994 -0.51511651
0.15922761 0.048122738 -0.51505828
0.16019011 0.048134126 -0.51516277
0.16115297 0.04814551 -0.51526731
0.14906211 0.049055956 -0.51528436
0.14992799 0.049036507 -0.51506305
0.15924448 0.049057912 -0.51511759
0.16020885 0.04907003 -0.51522779
0.16119134 0.049087554 -0.51539475
0.14904626 0.049981028 -0.51523465
0.14991942 0.049963638 -0.51503861
0.15924497 0.049988158 -0.51512396
0.14817747 0.050000146 -0.51544851
0.16023658 0.050008986 -0.51532185
0.1490718 0.050920069 -0.51532805
0.14995155 0.050904516 -0.51515412
0.15926076 0.050923321 -0.51517987
0.16025408 0.050945014 -0.51538283
0.1509172 0.051848534 -0.5152806
0.15225479 0.051831275 -0.5150848
0.15735781 0.051836267 -0.5150454
0.15833187 0.051852353 -0.51518899
0.15931067 0.051869798 -0.51534611
0.15007567 -0.068991862 -0.51492441
0.15090314 -0.06894388 -0.51457584
0.16673002 -0.068935372 -0.51467484
0.14820552 -0.068060897 -0.51489192
0.16860144 -0.068009697 -0.51471829
0.14635371 -0.067138359 -0.51492327
0.17052859 -0.067105643 -0.514929
0.1435243 -0.066195019 -0.5147835
0.1741221 -0.065195858 -0.51456618
0.13892394 -0.064366467 -0.51496702
0.13794364 -0.063415878 -0.51478368
0.13706376 -0.062511437 -0.51497501
0.18151832 -0.052178968 -0.51451892
0.18155241 -0.051260401 -0.51461977
0.18158662 -0.050341498 -0.51472092
0.18162183 -0.049422506 -0.51482493
0.18165705 -0.048503138 -0.51492894
0.13610983 -0.044857234 -0.51498979
0.13610353 -0.04392634 -0.51497149
0.13609722 -0.04299552 -0.51495332
0.1360909 -0.042064764 -0.51493502
0.1360846 -0.041134071 -0.51491678
0.13607831 -0.040203448 -0.51489854
0.1805727 -0.040108979 -0.51452678
0.13607198 -0.039272886 -0.51488024
0.18060811 -0.039188359 -0.51463187
0.13606836 -0.038343139 -0.51487201
0.18064351 -0.038267355 -0.51473695
0.13606472 -0.037413429 -0.51486385
0.18067893 -0.037345979 -0.51484209
0.13605738 -0.036482759 -0.51484179
0.18071434 -0.036424227 -0.51494724
0.13604942 -0.035551995 -0.51481718
0.13604474 -0.034622166 -0.51480514
0.13604008 -0.033692379 -0.51479304
0.17963603 -0.028040091 -0.51456028
0.17967032 -0.027116803 -0.51466268
0.17970498 -0.026193205 -0.51476622
0.17973967 -0.02526924 -0.51486993
0.17977436 -0.024344895 -0.51497352
0.17869326 -0.016897734 -0.51457232
0.17872773 -0.015972247 -0.51467592
0.17876223 -0.015046387 -0.51477951
0.17879672 -0.014120155 -0.5148831
0.17883123 -0.013193548 -0.51498675
0.17771864 -0.00018258061 -0.51451802
0.17773584 0.00074609771 -0.51457208
0.17775406 0.0016749807 -0.51462913
0.17777227 0.0026040699 -0.51468611
0.17780325 0.0035336183 -0.5147801
0.17783484 0.0044635208 -0.51487583
0.17786643 0.0053937696 -0.51497161
0.17676923 0.012816331 -0.51451921
0.17679556 0.013747093 -0.51460016
0.17681846 0.014677864 -0.51467115
0.176836 0.015608414 -0.51472646
0.17685355 0.016539168 -0.51478189
0.17687111 0.01747012 -0.51483727
0.17688866 0.018401274 -0.5148927
0.17691499 0.019798404 -0.51497579
0.13507162 0.024841534 -0.51499957
0.13506994 0.025770839 -0.51499873
0.17581664 0.025814759 -0.51451105
0.13506821 0.026700137 -0.51499784
0.1758388 0.026746938 -0.51458031
0.13506651 0.027629433 -0.51499695
0.17586099 0.027679369 -0.51464951
0.1350648 0.028558724 -0.51499605
0.17588316 0.028612049 -0.51471877
0.13506307 0.029488012 -0.51499516
0.17591064 0.02954587 -0.51480353
0.13506144 0.030417318 -0.51499462
0.17490041 0.032782134 -0.51458162
0.13593623 0.034123939 -0.51480895
0.17499964 0.034194924 -0.51488006
0.13688233 0.035988703 -0.51488298
0.13775805 0.036905415 -0.51468748
0.17402714 0.036972936 -0.51476675
0.17316081 0.038844254 -0.51496339
0.17213766 0.039750859 -0.51468903
0.17126581 0.040692169 -0.51486641
0.14154814 0.041579466 -0.51498109
0.14234844 0.041543286 -0.51451325
0.14331269 0.042484295 -0.51464546
0.16839792 0.042526629 -0.51463461
0.14428277 0.043427393 -0.51479679
0.16650073 0.04344251 -0.51451975
0.16756618 0.043479502 -0.51493889
0.14613548 0.044358198 -0.51478034
0.1656857 0.044400424 -0.51487863
0.14800039 0.04529272 -0.51480675
0.16375746 0.04530777 -0.51466686
0.16231489 0.045756504 -0.51451564
0.1498533 0.046223592 -0.51479125
0.15073729 0.046211261 -0.51463592
0.15999608 0.046217799 -0.51452929
0.16095389 0.046227679 -0.51462132
0.16290553 0.04625738 -0.51491606
0.15080483 0.047161579 -0.51487166
0.15168735 0.047148563 -0.51471192
0.15259518 0.047143538 -0.51463944
0.15351145 0.047141187 -0.5145961
0.15444739 0.047144882 -0.51461881
0.15537094 0.047144793 -0.51460028
0.15630129 0.047146775 -0.51460427
0.15723166 0.047148757 -0.51460826
0.15915556 0.047171421 -0.5148204
0.1601354 0.047187857 -0.5149821
0.15127298 0.048093107 -0.51488829
0.15262045 0.04808072 -0.51472968
0.1535276 0.048075382 -0.51465523
0.15445831 0.04807746 -0.51466018
0.15539186 0.048080411 -0.51467443
0.15634727 0.04809007 -0.51476055
0.15826552 0.048111357 -0.51495373
0.15125559 0.049017146 -0.51483417
0.15260829 0.049006198 -0.51469362
0.15351777 0.049001493 -0.51462722
0.15443888 0.049000554 -0.5146004
0.15538144 0.04900641 -0.5146448
0.15633135 0.04901452 -0.51471299
0.15728866 0.049024854 -0.51480448
0.15826628 0.049041383 -0.514961
0.1507955 0.049947448 -0.51485503
0.15168279 0.049935147 -0.5147115
0.15259634 0.049931612 -0.51465833
0.15351483 0.049929742 -0.51462233
0.15443185 0.04992744 -0.51458186
0.15537485 0.04993353 -0.51462793
0.15632467 0.049941748 -0.51469588
0.15728919 0.049954545 -0.51481104
0.15826677 0.049971346 -0.51496744
0.15126234 0.050878596 -0.51486719
0.1525989 0.050861742 -0.51467198
0.15351929 0.050860431 -0.51464224
0.15444735 0.050861679 -0.51463842
0.15538198 0.050865084 -0.51465642
0.15633398 0.050874118 -0.51473141
0.15729801 0.050886955 -0.51484483
0.15826824 0.050901651 -0.51497704
0.15361637 0.051822435 -0.51497269
0.1545434 0.051823135 -0.51496345
0.15547054 0.051823881 -0.51495463
0.15641186 0.051829338 -0.51499271
0.15173246 -0.068897314 -0.51423782
0.16374367 -0.0688558 -0.51405209
0.16471946 -0.068874419 -0.51420069
0.16569246 -0.068891652 -0.51433891
0.14944516 -0.067988619 -0.51435971
0.16750573 -0.067943528 -0.51420778
0.14714828 -0.067075491 -0.51445091
0.14795923 -0.067020819 -0.51404148
0.16939205 -0.06702514 -0.51430136
0.14429763 -0.066122212 -0.51422733
0.171252 -0.066095941 -0.51431352
0.1415406 -0.065211751 -0.51433498
0.13966773 -0.064279608 -0.51428246
0.13870734 -0.063338928 -0.51416957
0.17867412 -0.06329979 -0.51430428
0.13781989 -0.062431503 -0.51432729
0.13738741 -0.061519042 -0.51445287
0.1373589 -0.060578752 -0.51435167
0.18143187 -0.060503215 -0.51423615
0.13734242 -0.059644058 -0.51429552
0.18135969 -0.059551895 -0.51403576
0.1372003 -0.058412917 -0.51435018
0.13743666 -0.057145294 -0.51408374
0.18136658 -0.057235852 -0.5140658
0.13729936 -0.055916607 -0.51415646
0.18140392 -0.055856373 -0.51417792
0.13729124 -0.054986101 -0.51413149
0.18142882 -0.054936364 -0.51425266
0.1369049 -0.054090176 -0.5144282
0.18145375 -0.054016087 -0.51432753
0.13689913 -0.053160179 -0.51441199
0.18148424 -0.053097174 -0.51441813
0.13689521 -0.052230962 -0.51440287
0.13689129 -0.051301774 -0.51439369
0.1368874 -0.050372623 -0.51438457
0.13688347 -0.049443495 -0.51437545
0.13687952 -0.048514396 -0.51436615
0.13687322 -0.047584504 -0.51434797
0.13686687 -0.046654675 -0.51432973
0.13685738 -0.045260064 -0.51430237
0.18041365 -0.044247095 -0.5140546
0.1368479 -0.043865584 -0.51427513
0.13684157 -0.04293602 -0.51425689
0.18046664 -0.042868603 -0.51421189
0.13683526 -0.042006522 -0.51423872
0.180502 -0.041949105 -0.51431686
0.13682891 -0.041077089 -0.51422048
0.18053736 -0.04102923 -0.51442182
0.13682388 -0.040148091 -0.51420701
0.13682067 -0.039219681 -0.51420057
0.13681747 -0.03829129 -0.51419413
0.13681228 -0.037362374 -0.51418012
0.13680594 -0.036433209 -0.51416188
0.13679962 -0.035504106 -0.51414365
0.13679326 -0.034575067 -0.51412535
0.13678694 -0.033646103 -0.51410711
0.13640556 -0.032275353 -0.5144285
0.17948404 -0.032190654 -0.51410586
0.13639846 -0.030881761 -0.51441008
0.17953494 -0.030808028 -0.51425803
0.13639377 -0.029952772 -0.51439804
0.1795686 -0.029885741 -0.5143587
0.13638897 -0.0290238 -0.51438552
0.17960232 -0.028963096 -0.51445949
0.13638277 -0.028094584 -0.51436764
0.13637257 -0.026236767 -0.51434022
0.1363681 -0.025308046 -0.5143289
0.13636361 -0.024379371 -0.51431757
0.13635913 -0.023450732 -0.51430631
0.13635567 -0.02252231 -0.51429886
0.13635316 -0.021594059 -0.51429492
0.17852113 -0.021519596 -0.51405537
0.13635066 -0.020665823 -0.51429099
0.17855552 -0.020595968 -0.51415867
0.13634552 -0.019273309 -0.51428008
0.17860714 -0.019209782 -0.51431376
0.17865881 -0.01782285 -0.51446885
0.13633554 -0.016952392 -0.51425624
0.13633229 -0.016024176 -0.51424968
0.1363291 -0.015095992 -0.51424325
0.13632594 -0.01416783 -0.51423681
0.13632296 -0.013239712 -0.51423126
0.13632062 -0.012311668 -0.51422793
0.13631827 -0.011383638 -0.51422471
0.13631624 -0.010455647 -0.51422268
0.13631468 -0.0095276907 -0.51422232
0.13631341 -0.0085997563 -0.51422316
0.17755602 -0.0085315267 -0.5140087
0.13631263 -0.0076718465 -0.51422566
0.17757624 -0.0076047746 -0.51407146
0.13631143 -0.0062799612 -0.51422948
0.17760655 -0.006214194 -0.5141657
0.17763691 -0.0048231604 -0.51425999
0.17765714 -0.0038955021 -0.51432282
0.13630424 -0.0030320559 -0.51422197
0.17767738 -0.002967617 -0.5143857
0.136301 -0.0021040812 -0.51421523
0.17769673 -0.0020394952 -0.51444602
0.17770769 -0.0011111028 -0.51448202
0.13629447 -0.00024820509 -0.5142017
0.13629118 0.00067969639 -0.51419491
0.13628793 0.0016075736 -0.51418823
0.1362814 0.0034632548 -0.51417476
0.13627812 0.0043910583 -0.51416802
0.13627486 0.0053188377 -0.51416123
0.1362714 0.0067105321 -0.51415652
0.17660831 0.0067739245 -0.51402283
0.1362682 0.0081022177 -0.51415288
0.17663959 0.0081669996 -0.51412034
0.13626608 0.0090299975 -0.51415038
0.17666189 0.0090961019 -0.51418954
0.17668878 0.010025717 -0.51427215
0.17671569 0.010955632 -0.51435477
0.17674261 0.011885842 -0.51443744
0.1362558 0.012740859 -0.51413393
0.1362536 0.013668575 -0.51413119
0.1362514 0.014596282 -0.51412845
0.13624921 0.015523977 -0.51412576
0.13624702 0.016451662 -0.51412308
0.13624482 0.01737934 -0.5141204
0.13624263 0.018307006 -0.51411766
0.13623933 0.019698488 -0.51411355
0.17567265 0.019761728 -0.51406157
0.13623601 0.021089947 -0.51410943
0.17570585 0.02115762 -0.51416522
0.13623387 0.022017583 -0.51410693
0.17572798 0.022088546 -0.51423436
0.13623191 0.022945238 -0.51410508
0.17575015 0.023019725 -0.51430351
0.13622992 0.023872888 -0.51410323
0.17577229 0.023951152 -0.51437271
0.1362282 0.024800578 -0.51410228
0.17579444 0.024882829 -0.51444185
0.13622928 0.02572879 -0.51411194
0.13623036 0.026657037 -0.51412159
0.13623144 0.027585316 -0.51413113
0.13623455 0.028514063 -0.51414853
0.1362384 0.029443027 -0.51416862
0.17472859 0.029501684 -0.5140608
0.13624227 0.030372066 -0.51418871
0.17476255 0.030435622 -0.51416504
0.13624911 0.031301863 -0.51422018
0.13628446 0.032702837 -0.5143618
0.13673316 0.034092482 -0.51431066
0.13720562 0.035023898 -0.51434767
0.1738254 0.035073552 -0.51416129
0.13768212 0.035956409 -0.51439828
0.17389107 0.036015406 -0.51435989
0.13856827 0.036875341 -0.51424605
0.13863517 0.03782199 -0.51449978
0.13944578 0.037791524 -0.51406378
0.1729956 0.037878364 -0.51446772
0.13953793 0.038745198 -0.51440901
0.17196524 0.038782746 -0.51416904
0.14047386 0.039677549 -0.51444095
0.17099819 0.039700489 -0.51405746
0.14140993 0.040610015 -0.5144729
0.17013207 0.040641833 -0.51424968
0.14315599 0.041509695 -0.51407743
0.1692653 0.041583881 -0.51444203
0.14412178 0.042450532 -0.51421708
0.16731778 0.042486716 -0.51417094
0.14511915 0.043401167 -0.51446694
0.14595634 0.043375544 -0.51414412
0.16543762 0.043405734 -0.51410317
0.14698075 0.044334423 -0.51448584
0.14824797 0.044299189 -0.51404905
0.16460857 0.04435908 -0.51441789
0.14928193 0.045261011 -0.51441884
0.1505734 0.045232851 -0.51407146
0.1612367 0.0452483 -0.51403689
0.15161079 0.046195906 -0.51444703
0.15249087 0.046182759 -0.5142827
0.15338188 0.04617307 -0.51415688
0.15430331 0.046172615 -0.51413387
0.15522572 0.046172481 -0.51411438
0.15617009 0.046178851 -0.51416743
0.15711446 0.046185173 -0.51421988
0.15805422 0.046190083 -0.5142566
0.15903264 0.046206191 -0.51441801
0.15258582 -0.06886214 -0.5139848
0.15344149 -0.068828419 -0.51374263
0.15431584 -0.068803407 -0.51356554
0.16080113 -0.068792038 -0.51354742
0.16177231 -0.06880945 -0.51368701
0.16275418 -0.068831146 -0.5138585
0.15069231 -0.067920908 -0.51386201
0.15154268 -0.067884944 -0.51359963
0.16644685 -0.067891628 -0.51380533
0.14879055 -0.066975981 -0.5137074
0.16827239 -0.066950433 -0.51371825
0.17007169 -0.065999597 -0.51355386
0.1422819 -0.065124743 -0.51365882
0.17289339 -0.065084383 -0.51367611
0.14039861 -0.064187974 -0.5135597
0.17575246 -0.064181872 -0.5139038
0.13946599 -0.063260697 -0.51354504
0.13857707 -0.062353123 -0.5136922
0.17934024 -0.062279593 -0.51355654
0.13853173 -0.061406683 -0.51352954
0.1802911 -0.061359912 -0.51362759
0.18132924 -0.058614783 -0.51395363
0.13766125 -0.054021206 -0.51378483
0.13765307 -0.053091463 -0.51375985
0.13764492 -0.052161817 -0.51373494
0.13763677 -0.051232256 -0.51370996
0.13763142 -0.050303813 -0.5136956
0.18023179 -0.050224312 -0.51350909
0.1376275 -0.049375936 -0.51368648
0.1802589 -0.049305338 -0.51359057
0.13762197 -0.048447527 -0.51367134
0.18028606 -0.04838609 -0.51367211
0.13761564 -0.047518887 -0.51365316
0.18031318 -0.047466535 -0.51375359
0.1376093 -0.046590317 -0.51363504
0.18034032 -0.046546694 -0.51383513
0.13760467 -0.045662384 -0.5136233
0.1803675 -0.04562657 -0.51391679
0.13759989 -0.044271253 -0.5136137
0.1375951 -0.042880174 -0.51360416
0.13759191 -0.041952807 -0.51359773
0.13758872 -0.041025471 -0.51359135
0.13758552 -0.040098157 -0.51358491
0.13758187 -0.039170738 -0.51357681
0.13757551 -0.038242593 -0.51355857
0.17929409 -0.038179308 -0.51353425
0.13756916 -0.037314516 -0.51354033
0.17932107 -0.03725839 -0.51361579
0.13756283 -0.036386508 -0.51352215
0.17934805 -0.036337186 -0.51369733
0.13755646 -0.035458561 -0.51350397
0.17940205 -0.034493882 -0.51386046
0.17943165 -0.033572286 -0.51394951
0.17834406 -0.027057996 -0.51352
0.17836872 -0.026135024 -0.51359528
0.17839342 -0.025211785 -0.51367062
0.17841811 -0.024288274 -0.51374602
0.17845234 -0.02336574 -0.51384884
0.17848672 -0.022442855 -0.51395208
0.17740953 -0.01501202 -0.51355469
0.17744294 -0.014087928 -0.51365566
0.17747541 -0.013163404 -0.51375395
0.17749536 -0.01223766 -0.51381594
0.17750683 -0.011311151 -0.51385343
0.17751829 -0.010384508 -0.51389092
0.17753582 -0.0094580511 -0.51394588
0.17644896 -0.0020372868 -0.51351815
0.1764598 -0.0011105716 -0.51355404
0.17647064 -0.00018372689 -0.51358992
0.17648147 0.00074324722 -0.5136258
0.17649829 0.0016704074 -0.51367903
0.17651619 0.0025977755 -0.51373541
0.17653529 0.0035253714 -0.51379532
0.17655616 0.0044532279 -0.51386034
0.17657702 0.0053813183 -0.51392531
0.175502 0.011863263 -0.51352555
0.17552055 0.012791526 -0.51358408
0.17553918 0.013720007 -0.51364297
0.17555892 0.014648792 -0.51370502
0.17557865 0.015577801 -0.51376712
0.17559843 0.016507037 -0.51382923
0.17561814 0.017436493 -0.51389134
0.17563947 0.018366341 -0.51395798
0.17455897 0.022056626 -0.5135271
0.17458297 0.022986785 -0.51360202
0.17460622 0.023917111 -0.5136748
0.17462547 0.024847126 -0.51373571
0.17464469 0.025777362 -0.51379663
0.17466393 0.026707819 -0.51385754
0.17468317 0.027638497 -0.51391852
0.17470242 0.028569397 -0.51397949
0.13745967 0.031726353 -0.51354218
0.17363678 0.031790312 -0.51358807
0.13750364 0.033127524 -0.51371479
0.17369422 0.033192031 -0.5137645
0.1737598 0.034132436 -0.51396281
0.13843468 0.034984834 -0.51373923
0.13850144 0.03592962 -0.51399249
0.13931416 0.035901509 -0.51356775
0.1393798 0.036846027 -0.51381516
0.17283073 0.036914345 -0.513973
0.14025952 0.037762333 -0.51364511
0.17180789 0.037819825 -0.51369411
0.14035174 0.038715094 -0.51398826
0.14116625 0.038685605 -0.51357561
0.17081703 0.038731322 -0.51350838
0.14127214 0.03964252 -0.51396614
0.14208591 0.03961229 -0.51355362
0.14220726 0.040574092 -0.51399755
0.14300543 0.040538892 -0.51353151
0.16901977 0.040596113 -0.51369131
0.14396666 0.041477457 -0.51365834
0.16815354 0.041537117 -0.51388329
0.14493474 0.042418357 -0.51380795
0.16625406 0.042450577 -0.51375294
0.14679253 0.043349955 -0.51382184
0.14763902 0.04332773 -0.51353943
0.16436622 0.043366373 -0.5136559
0.14953202 0.044269562 -0.5136773
0.16253042 0.044295792 -0.51372111
0.16352879 0.044316571 -0.51394355
0.15144335 0.045217078 -0.51387393
0.1523301 0.045206502 -0.51373547
0.15322323 0.045197953 -0.51362008
0.15413401 0.045194697 -0.51356483
0.15504719 0.045192204 -0.51351821
0.15598564 0.04519707 -0.51355529
0.15693273 0.045204394 -0.51362026
0.15788499 0.045213122 -0.51370114
0.15884152 0.04522299 -0.51379502
0.15979776 0.045232672 -0.51388675
0.15520382 -0.068784714 -0.51343554
0.15610678 -0.068772845 -0.51335645
0.157022 -0.068766437 -0.51331818
0.1584246 -0.068769872 -0.51335812
0.15984628 -0.068781435 -0.51345879
0.15240863 -0.067856357 -0.51339298
0.15327391 -0.067827784 -0.51318651
0.16340999 -0.06779027 -0.51300919
0.16439982 -0.067815192 -0.51320744
0.16539636 -0.067842573 -0.51342434
0.14962083 -0.066931203 -0.51337379
0.15044996 -0.066886477 -0.5130406
0.16719145 -0.066890381 -0.51324761
0.14547899 -0.066024512 -0.51348257
0.14302994 -0.065041907 -0.51301569
0.13933793 -0.062277399 -0.51307899
0.13850537 -0.06046911 -0.51343727
0.18008025 -0.06036273 -0.51303107
0.13847899 -0.059531871 -0.513345
0.13845944 -0.058597848 -0.51327795
0.13844843 -0.057667628 -0.51324266
0.13843614 -0.056274261 -0.51320529
0.13842386 -0.054881074 -0.51316792
0.18010138 -0.054816306 -0.51311654
0.13841566 -0.053952407 -0.51314306
0.18012731 -0.053898428 -0.51319456
0.13840748 -0.05302383 -0.51311821
0.18015325 -0.052980267 -0.51327264
0.13840012 -0.052095652 -0.51309639
0.18017918 -0.052061822 -0.51335078
0.13839369 -0.051167894 -0.51307797
0.18020514 -0.051143114 -0.51342893
0.13838722 -0.0502402 -0.5130595
0.1383757 -0.048385486 -0.51302773
0.1383709 -0.047458548 -0.51301539
0.1383677 -0.046532188 -0.51300901
0.13836449 -0.045605861 -0.51300263
0.17914587 -0.043239109 -0.51308656
0.17918627 -0.041860066 -0.51320857
0.17921323 -0.040940315 -0.51328999
0.17924017 -0.040020268 -0.51337141
0.17926712 -0.039099939 -0.51345283
0.1375501 -0.034530677 -0.51348573
0.13754375 -0.033602864 -0.51346749
0.13753739 -0.032675117 -0.51344931
0.17819612 -0.032590125 -0.51306856
0.13753121 -0.031284377 -0.51343441
0.17823309 -0.031207971 -0.51318139
0.13752881 -0.029894544 -0.51343381
0.17827007 -0.029825279 -0.51329422
0.13752469 -0.028967457 -0.51342392
0.17829472 -0.028903121 -0.51336944
0.13752058 -0.028040409 -0.51341414
0.17831938 -0.027980693 -0.51344466
0.13751645 -0.027113395 -0.51340425
0.13751234 -0.026186414 -0.51339436
0.13750821 -0.025259471 -0.51338446
0.13750409 -0.024332561 -0.51337457
0.1375007 -0.023405813 -0.51336741
0.13749817 -0.022479232 -0.51336348
0.13749564 -0.021552665 -0.51335955
0.1772379 -0.021477999 -0.51302797
0.13749298 -0.020626094 -0.51335514
0.17726241 -0.020555101 -0.51310319
0.13748898 -0.019699344 -0.51334566
0.17728691 -0.019631932 -0.51317835
0.13748293 -0.018309286 -0.51333141
0.17732368 -0.018246638 -0.51329118
0.13747743 -0.016919358 -0.51331913
0.17736046 -0.016860798 -0.51340407
0.13747455 -0.015992874 -0.51331395
0.17738499 -0.015936544 -0.51347935
0.13747169 -0.015066411 -0.51330876
0.13746883 -0.014139965 -0.51330358
0.13746595 -0.013213537 -0.51329833
0.13746309 -0.012287128 -0.51329315
0.13746034 -0.011360747 -0.51328838
0.1374577 -0.010434393 -0.51328403
0.17629336 -0.010368491 -0.51302677
0.13745621 -0.0095081329 -0.51328397
0.17630611 -0.0094433464 -0.51306814
0.13745469 -0.0085818721 -0.51328385
0.17631888 -0.0085180542 -0.51310962
0.13745318 -0.0076556127 -0.51328373
0.17633715 -0.0075928485 -0.51316708
0.13745095 -0.0062662247 -0.51328361
0.17636721 -0.0062047173 -0.51326102
0.13744868 -0.0048768362 -0.51328343
0.17639728 -0.0048161335 -0.51335496
0.13744718 -0.0039505782 -0.51328331
0.17641732 -0.0038901102 -0.51341754
0.13744569 -0.0030243208 -0.51328325
0.17643739 -0.0029638605 -0.51348025
0.13744467 -0.0020980709 -0.51328504
0.13744256 -0.0011718053 -0.51328266
0.13744088 -0.00024554902 -0.51328188
0.13743939 0.00068070524 -0.51328176
0.13743788 0.0016069592 -0.51328164
0.13743638 0.0025332128 -0.51328152
0.13743488 0.0034594662 -0.51328146
0.13743338 0.0043857186 -0.51328135
0.17535119 0.0044447151 -0.51304972
0.13743187 0.0053119706 -0.51328123
0.17537187 0.0053713382 -0.51311451
0.13742961 0.0067013493 -0.51328111
0.17540015 0.0067616329 -0.51320374
0.13742736 0.0080907252 -0.51328093
0.1754279 0.0081523331 -0.51329148
0.13742585 0.0090169758 -0.51328081
0.17544644 0.0090797488 -0.51334995
0.13742436 0.0099432273 -0.51328075
0.17546494 0.010007376 -0.51340848
0.13742286 0.010869477 -0.51328063
0.17548348 0.010935215 -0.51346701
0.13742068 0.011795671 -0.51327807
0.13741827 0.012721831 -0.51327455
0.13741587 0.013647979 -0.51327103
0.13741343 0.014574112 -0.51326746
0.13741101 0.015500234 -0.51326394
0.17439112 0.01555311 -0.51300287
0.1374086 0.016426345 -0.51326042
0.17441505 0.01648137 -0.51307768
0.13740617 0.017352441 -0.51325697
0.17443904 0.017409902 -0.51315254
0.13740382 0.01874174 -0.51325643
0.17447498 0.018803241 -0.51326483
0.17451099 0.020197125 -0.51337719
0.17453496 0.021126736 -0.51345211
0.13740496 0.021984473 -0.51327997
0.13740534 0.022911035 -0.51328689
0.13740677 0.023837799 -0.51329774
0.13741027 0.024764979 -0.51331627
0.13741374 0.025692223 -0.51333481
0.1734647 0.02573839 -0.51305068
0.13741721 0.026619535 -0.51335335
0.17348376 0.026667489 -0.51311147
0.1374207 0.027546912 -0.51337188
0.17350283 0.027596807 -0.51317221
0.1374242 0.028474359 -0.51339048
0.17352192 0.028526345 -0.51323301
0.13742886 0.029402118 -0.51341337
0.17355262 0.029458078 -0.51332819
0.13743733 0.030330805 -0.5134505
0.17358626 0.030390671 -0.51343209
0.13826594 0.031700198 -0.51309389
0.13830261 0.033098359 -0.51323819
0.17251359 0.033141866 -0.51301235
0.13836797 0.03404098 -0.51348621
0.13918306 0.034015197 -0.51307356
0.17254701 0.034074631 -0.51311612
0.13924856 0.034957897 -0.51332051
0.17258941 0.035009585 -0.5132466
0.14011723 0.035871319 -0.51311326
0.17266616 0.035952166 -0.51347917
0.14018321 0.036814988 -0.51336026
0.17165121 0.036858775 -0.51322132
0.14107196 0.037733186 -0.51322716
0.17066132 0.03776978 -0.51303589
0.1419795 0.038656164 -0.51316369
0.14289837 0.039582107 -0.51314169
0.16988538 0.039655812 -0.51349956
0.14424695 0.040499438 -0.5130015
0.16790989 0.040550489 -0.51313418
0.1451969 0.041434001 -0.51309061
0.16601762 0.041463967 -0.51301771
0.16707963 0.041499257 -0.51343465
0.14619046 0.042381439 -0.51333183
0.16519208 0.04241449 -0.51333553
0.14848785 0.043306481 -0.51326859
0.16234353 0.043318409 -0.51312572
0.16334064 0.043338742 -0.51334763
0.15039867 0.044253286 -0.51346982
0.15126294 0.044236518 -0.51325667
0.15214694 0.044225715 -0.51311278
0.15768792 0.044230364 -0.51305521
0.15864453 0.0442404 -0.51315302
0.15959992 0.04425 -0.51324582
0.16055527 0.044259496 -0.51333737
0.16153297 0.04427503 -0.51349896
0.15413794 -0.067798994 -0.51297832
0.15500066 -0.06776996 -0.51276833
0.15586269 -0.067740947 -0.51255852
0.16048029 -0.067730449 -0.51252747
0.16144924 -0.067747436 -0.51266569
0.16242611 -0.067767523 -0.5128274
0.15128207 -0.066843584 -0.51272142
0.1661156 -0.066831663 -0.51278728
0.16891967 -0.0659132 -0.51287162
0.17171213 -0.064989656 -0.51291829
0.14116308 -0.06411279 -0.51296842
0.174391 -0.064024031 -0.51262957
0.14021845 -0.0631807 -0.51290607
0.17729042 -0.063139059 -0.51298785
0.13929538 -0.06133341 -0.51292765
0.13926904 -0.060397003 -0.5128361
0.18001246 -0.059414919 -0.51284218
0.13921636 -0.058525193 -0.51265299
0.18000829 -0.058488458 -0.51283449
0.13920538 -0.057596132 -0.51261795
0.18002366 -0.057568274 -0.51288247
0.1391989 -0.056669034 -0.51259959
0.18006252 -0.056192569 -0.51299948
0.1391892 -0.055278521 -0.51257193
0.13917948 -0.053888138 -0.51254433
0.13917302 -0.052961309 -0.51252592
0.13916655 -0.052034542 -0.5125075
0.17897105 -0.049207583 -0.5125584
0.17899793 -0.048290163 -0.51263958
0.17902482 -0.047372449 -0.51272082
0.17905171 -0.046454448 -0.51280206
0.17907861 -0.045536157 -0.51288331
0.1383613 -0.044679552 -0.51299626
0.17910551 -0.044617571 -0.51296455
0.13835651 -0.043290127 -0.51298666
0.13835172 -0.041900758 -0.51297706
0.13834853 -0.040974542 -0.51297069
0.13834324 -0.040047746 -0.51295668
0.13833687 -0.039120689 -0.5129385
0.17801502 -0.039030068 -0.51251745
0.13833049 -0.038193703 -0.51292032
0.17804201 -0.038111165 -0.51259935
0.13832413 -0.037266776 -0.51290214
0.17806901 -0.037191972 -0.51268131
0.13831775 -0.03633992 -0.51288396
0.178096 -0.036272485 -0.51276326
0.17812227 -0.035352554 -0.51284319
0.13831475 -0.034488827 -0.51288378
0.17814688 -0.034432016 -0.51291829
0.13831335 -0.033563308 -0.51288408
0.17817152 -0.03351121 -0.5129934
0.13831198 -0.032637786 -0.51288438
0.13830933 -0.031249378 -0.51288277
0.13830395 -0.029860388 -0.51287109
0.13829984 -0.028934319 -0.51286125
0.1382957 -0.02800828 -0.51285136
0.17706665 -0.027930737 -0.51250243
0.13829157 -0.027082281 -0.51284152
0.17709112 -0.027009727 -0.51257747
0.13828743 -0.026156312 -0.51283163
0.17711554 -0.026088446 -0.51265252
0.1382833 -0.025230385 -0.51282179
0.17714001 -0.025166897 -0.51272756
0.13827915 -0.024304491 -0.5128119
0.17716447 -0.02424508 -0.5128026
0.13827637 -0.023378856 -0.51280701
0.13827506 -0.022453487 -0.51280767
0.17721342 -0.022400631 -0.51295286
0.13827376 -0.021528112 -0.51280832
0.13827032 -0.020602414 -0.51280099
0.13826503 -0.019676484 -0.51278692
0.13825713 -0.01828769 -0.51276577
0.17613873 -0.018221367 -0.51254034
0.13824938 -0.016899018 -0.51274526
0.17617147 -0.016837195 -0.51264203
0.13824652 -0.015973568 -0.51274008
0.1761933 -0.015914088 -0.5127098
0.13824366 -0.015048136 -0.51273489
0.17621514 -0.014990738 -0.51277769
0.17623699 -0.014067143 -0.51284552
0.13823791 -0.01319733 -0.51272452
0.17625511 -0.013143025 -0.51290256
0.13823509 -0.012271957 -0.51271951
0.17626785 -0.012218329 -0.51294392
0.13823235 -0.011346612 -0.51271486
0.17628062 -0.011293484 -0.51298535
0.13822965 -0.010421285 -0.51271033
0.13822693 -0.0094959754 -0.51270574
0.1382242 -0.0085706804 -0.51270109
0.13822199 -0.00764543 -0.51269835
0.13821974 -0.006257622 -0.51269817
0.13821812 -0.0048698364 -0.51270032
0.17518258 -0.0048096962 -0.51251322
0.13821949 -0.0039447108 -0.51271093
0.17519893 -0.003885115 -0.51256537
0.13822086 -0.0030195459 -0.51272148
0.17521545 -0.0029603492 -0.51261806
0.13822225 -0.0020943433 -0.51273209
0.1752314 -0.0020353857 -0.51266903
0.13822362 -0.0011691024 -0.5127427
0.17524731 -0.0011102383 -0.51271987
0.17526324 -0.00018490717 -0.51277083
0.17527919 0.00074060768 -0.51282179
0.17529652 0.0016663196 -0.51287675
0.17531423 0.002592236 -0.51293296
0.17533198 0.0035183555 -0.51298916
0.17424792 0.0081390105 -0.5125469
0.17426382 0.00906495 -0.51259804
0.17427988 0.0099910814 -0.5126496
0.1742962 0.010917417 -0.51270199
0.13819587 0.011784266 -0.51271617
0.17431252 0.011843938 -0.51275426
0.13819613 0.012709663 -0.51272267
0.17432883 0.012770651 -0.51280665
0.13819651 0.013635093 -0.51272953
0.17434518 0.013697554 -0.51285905
0.13819689 0.01456055 -0.51273638
0.17436714 0.014625121 -0.51292807
0.13819724 0.015486028 -0.51274323
0.13819762 0.016411532 -0.51275009
0.138198 0.01733706 -0.51275694
0.13819857 0.018725406 -0.5127672
0.13819912 0.020113798 -0.51277751
0.17335042 0.020168416 -0.51268643
0.13819949 0.021039426 -0.51278436
0.17336947 0.021096196 -0.51274711
0.13819987 0.021965077 -0.51279122
0.17338851 0.022024194 -0.51280779
0.13820113 0.022890903 -0.51280135
0.17340754 0.022952415 -0.51286852
0.13820465 0.023817152 -0.51281989
0.17342658 0.023880852 -0.5129292
0.13820815 0.024743468 -0.51283836
0.17344563 0.024809511 -0.51298994
0.13821167 0.02566985 -0.5128569
0.13821697 0.026596647 -0.51288211
0.1382255 0.027524173 -0.51291919
0.138234 0.02845183 -0.5129562
0.13904631 0.028430125 -0.51253688
0.13824251 0.029379621 -0.51299328
0.13905486 0.029357158 -0.51257384
0.17238002 0.02941459 -0.51259756
0.17241339 0.030345848 -0.51270121
0.13906771 0.030747976 -0.51262933
0.17246346 0.031743478 -0.51285672
0.13908058 0.032139067 -0.51268494
0.13911761 0.033073403 -0.51282686
0.13998549 0.033986699 -0.51262003
0.14005135 0.034928557 -0.51286656
0.17141388 0.034957282 -0.51250291
0.17149529 0.03589958 -0.51275069
0.140994 0.036786299 -0.5129382
0.17050594 0.036810011 -0.5125643
0.14188305 0.037704084 -0.51280981
0.14319673 0.038612083 -0.51254708
0.16967216 0.038680125 -0.51285058
0.14371166 0.039552558 -0.51273805
0.16877495 0.039611224 -0.51294273
0.16684215 0.040514618 -0.51270032
0.14645734 0.041399859 -0.51263827
0.16496359 0.041430298 -0.51262087
0.1474577 0.042348485 -0.51290363
0.14831701 0.042331036 -0.51267296
0.16215439 0.042342592 -0.51252323
0.1631504 0.042362515 -0.51274508
0.16414727 0.042382449 -0.51296705
0.14933577 0.043285251 -0.51299804
0.15020789 0.043271273 -0.51281345
0.15108651 0.043259341 -0.51265311
0.15196884 0.043248616 -0.51250708
0.15844671 0.043259908 -0.51250839
0.15940246 0.04326975 -0.51260608
0.16035672 0.043279093 -0.51269782
0.16134734 0.043298103 -0.51290411
0.15303712 0.044216849 -0.51299131
0.15394738 0.044213861 -0.51293808
0.15486909 0.0442142 -0.51292342
0.15625869 0.044216719 -0.51292479
0.15675956 -0.067727327 -0.51246506
0.15766802 -0.067718819 -0.5124104
0.15857984 -0.067711823 -0.51236719
0.15952669 -0.06771978 -0.51243699
0.15213975 -0.066812418 -0.51249218
0.15299568 -0.06678085 -0.51225984
0.15385054 -0.066749185 -0.51202673
0.16405188 -0.066748023 -0.51212591
0.16507487 -0.066786505 -0.51243091
0.14749397 -0.065885991 -0.51243019
0.14831723 -0.065839462 -0.51207829
0.16780953 -0.065842278 -0.51230973
0.14381061 -0.064974859 -0.51249701
0.17051443 -0.064887621 -0.5121029
0.14230774 -0.064001016 -0.51208961
0.14096905 -0.063100897 -0.51226872
0.17603493 -0.063022517 -0.51203042
0.14049201 -0.0621714 -0.51222169
0.17796588 -0.062124848 -0.51226985
0.14005987 -0.061261464 -0.51233685
0.17894921 -0.06121945 -0.51244098
0.14003345 -0.060326152 -0.51224548
0.17880696 -0.06024716 -0.51203781
0.140007 -0.059391167 -0.51215416
0.13998993 -0.058460414 -0.512097
0.13997656 -0.057531413 -0.51205361
0.17879681 -0.057472929 -0.51202142
0.13996369 -0.05660275 -0.51201183
0.17880958 -0.056553338 -0.51206219
0.17882234 -0.05563359 -0.51210296
0.1788415 -0.054253686 -0.51216412
0.17886518 -0.052874822 -0.51223832
0.17889088 -0.051958218 -0.51231611
0.13916022 -0.051107898 -0.51248968
0.17891733 -0.051041558 -0.5123961
0.13915457 -0.050181556 -0.51247424
0.1789442 -0.050124716 -0.51247728
0.13914891 -0.049255274 -0.51245886
0.13913761 -0.047402877 -0.51242805
0.13913193 -0.046476755 -0.51241261
0.1391263 -0.045550704 -0.51239729
0.13912065 -0.044624701 -0.51238191
0.17785338 -0.044537321 -0.51202655
0.13911614 -0.043699104 -0.51237071
0.17788027 -0.043620177 -0.51210827
0.1391111 -0.042311326 -0.51236022
0.17792068 -0.042243879 -0.51223093
0.13910285 -0.040922653 -0.51233804
0.17796113 -0.040866993 -0.51235372
0.13910016 -0.039997745 -0.51233357
0.17798807 -0.039948676 -0.51243556
0.13948794 -0.039052088 -0.51206565
0.13948599 -0.038127884 -0.51206386
0.13948403 -0.037203692 -0.51206207
0.1394823 -0.036279567 -0.51206118
0.13948092 -0.035355527 -0.51206148
0.1394795 -0.034431487 -0.51206177
0.13947813 -0.033507451 -0.51206207
0.17692016 -0.03345114 -0.51205283
0.13947542 -0.032583106 -0.5120576
0.17694455 -0.032531746 -0.5121277
0.13947311 -0.031658862 -0.51205444
0.17696895 -0.03161208 -0.51220256
0.13946904 -0.030272387 -0.51204759
0.17700559 -0.030232048 -0.51231498
0.13946496 -0.028885944 -0.51204067
0.17704223 -0.028851477 -0.51242751
0.13946261 -0.027961744 -0.51203746
0.13946131 -0.027037766 -0.51203817
0.13946001 -0.026113782 -0.51203877
0.13945873 -0.025189796 -0.51203948
0.17596802 -0.025133146 -0.51201141
0.1394574 -0.024265805 -0.51204008
0.17599186 -0.024212556 -0.51208508
0.13945612 -0.023341814 -0.51204067
0.1760157 -0.0232917 -0.51215875
0.13945483 -0.022417821 -0.51204139
0.17603956 -0.022370579 -0.51223242
0.13945267 -0.02149369 -0.51203877
0.17606239 -0.021449065 -0.51230317
0.13905555 -0.020580199 -0.51228321
0.17608419 -0.02052718 -0.51237088
0.13905026 -0.019655202 -0.51226914
0.17610599 -0.01960505 -0.51243865
0.13904233 -0.018267805 -0.51224804
0.17503019 -0.014970018 -0.51201999
0.17505185 -0.014047788 -0.5120877
0.13901557 -0.013181863 -0.51217937
0.17506875 -0.013124958 -0.51214147
0.13901122 -0.012257338 -0.51216871
0.1750814 -0.012201635 -0.51218277
0.13900697 -0.011332858 -0.51215845
0.17509404 -0.011278164 -0.51222408
0.13900472 -0.010408569 -0.51215559
0.17510667 -0.010354545 -0.51226532
0.13900246 -0.0094842883 -0.51215273
0.17511933 -0.0094307754 -0.51230663
0.13900021 -0.0085600177 -0.51214987
0.17513195 -0.0085068569 -0.51234794
0.13900071 -0.0076359082 -0.51215708
0.17514461 -0.0075827902 -0.51238924
0.13900416 -0.0062498162 -0.512178
0.1751636 -0.0061963927 -0.51245123
0.13900435 -0.0048635006 -0.51218683
0.13900451 -0.0039392635 -0.51219279
0.13900463 -0.0030150036 -0.51219869
0.13900477 -0.0020907226 -0.51220459
0.13900489 -0.0011664203 -0.51221049
0.17408934 -0.0011102282 -0.51203716
0.13900469 -0.00024209602 -0.5122152
0.17410514 -0.00018613227 -0.512088
0.13900371 0.00068224117 -0.51221699
0.17412093 0.00073814718 -0.51213878
0.13900281 0.0016065858 -0.51221907
0.17413673 0.00166261 -0.51218957
0.13900189 0.002530938 -0.51222116
0.17415258 0.002587257 -0.51224053
0.13900097 0.0034552973 -0.51222318
0.17416847 0.0035120884 -0.51229155
0.13900006 0.0043796645 -0.51222527
0.17418435 0.0044371043 -0.51234263
0.13899913 0.0053040385 -0.5122273
0.17420022 0.0053623044 -0.51239365
0.17422406 0.0067504738 -0.5124703
0.13899641 0.0080772052 -0.5122335
0.1389958 0.0090016304 -0.51223671
0.1389953 0.0099260723 -0.51224023
0.13939369 0.010846356 -0.51201135
0.17314416 0.010901667 -0.51203293
0.13939326 0.01177041 -0.5120151
0.17316036 0.011826977 -0.51208514
0.13939276 0.012694475 -0.5120188
0.13939232 0.013618557 -0.5120225
0.17319363 0.013678234 -0.51219225
0.13939185 0.014542652 -0.51202625
0.17321737 0.014604753 -0.51226687
0.13939141 0.01546676 -0.51203001
0.17324112 0.015531539 -0.51234144
0.13899156 0.016397508 -0.51226449
0.17326489 0.016458599 -0.51241606
0.13899137 0.017322091 -0.5122692
0.13899194 0.018709118 -0.51227945
0.13899252 0.020096192 -0.5122897
0.13899291 0.021020943 -0.51229656
0.17219369 0.021064093 -0.51200414
0.13899398 0.021945827 -0.51230597
0.17221259 0.021990744 -0.5120647
0.13899752 0.022871152 -0.51232445
0.17223147 0.022917612 -0.51212519
0.13900352 0.023796961 -0.51235199
0.17225036 0.023844697 -0.51218575
0.13901207 0.024723327 -0.51238894
0.17226925 0.024772005 -0.51224631
0.13902064 0.025649827 -0.5124259
0.1398318 0.025630487 -0.51200873
0.17228815 0.025699526 -0.51230687
0.1390292 0.026576459 -0.51246291
0.13984044 0.026556373 -0.51204574
0.17230703 0.026627271 -0.51236743
0.13903774 0.027503224 -0.51249987
0.17232594 0.027555235 -0.51242805
0.13985777 0.02840855 -0.51211995
0.17234667 0.028483719 -0.51249403
0.13986644 0.029334841 -0.51215708
0.14029166 0.030714398 -0.51203036
0.17126168 0.030766536 -0.51202798
0.14031297 0.032105755 -0.51211619
0.17131239 0.032162555 -0.51218623
0.14032939 0.033034135 -0.51218152
0.1713462 0.033093747 -0.51229173
0.14078651 0.033958253 -0.51216727
0.17138004 0.034025323 -0.51239729
0.1413227 0.035827063 -0.51244646
0.17036791 0.035855595 -0.51214498
0.14220944 0.03674385 -0.51231331
0.16951773 0.037719868 -0.51237941
0.16853082 0.0386292 -0.51219636
0.14454055 0.039527666 -0.51239485
0.14536834 0.039502811 -0.51205206
0.16766694 0.039566737 -0.51238722
0.14549004 0.040461123 -0.51248598
0.14631729 0.040435623 -0.51214284
0.16578381 0.040480655 -0.5122906
0.14730912 0.041380733 -0.51238173
0.14816478 0.041362938 -0.5121417
0.16294053 0.041383475 -0.51208085
0.16393943 0.041403823 -0.51231295
0.14917618 0.042313784 -0.51244473
0.15003979 0.042298015 -0.51223451
0.15091258 0.042285036 -0.51205802
0.16016503 0.04230281 -0.51208025
0.16115929 0.042322692 -0.51230168
0.15285161 0.043238178 -0.51236451
0.15421017 0.043232422 -0.51226789
0.15559585 0.043234345 -0.51226234
0.15653634 0.043240242 -0.51231325
0.15749136 0.043250076 -0.51241088
0.15470228 -0.066716537 -0.5117861
0.15555601 -0.06668511 -0.5115549
0.16110738 -0.06668134 -0.51158476
0.16207072 -0.066696376 -0.51170993
0.16303316 -0.066710845 -0.51183081
0.14913771 -0.06579227 -0.51172119
0.16669345 -0.06576819 -0.51172334
0.14458969 -0.064907953 -0.5119794
0.17314778 -0.063908108 -0.51169115
0.14171779 -0.063021302 -0.51163298
0.14082265 -0.061189692 -0.51174742
0.17769852 -0.061108876 -0.51150453
0.14079611 -0.060255464 -0.51165628
0.14077613 -0.059324332 -0.51158899
0.17877126 -0.05931168 -0.51193982
0.17878403 -0.058392372 -0.51198059
0.14074929 -0.057468161 -0.51150221
0.13995719 -0.055676781 -0.51199347
0.13994747 -0.054287966 -0.51196599
0.13993771 -0.052899275 -0.51193839
0.13993174 -0.051973768 -0.51192194
0.17768858 -0.051878624 -0.51151824
0.13992608 -0.051048435 -0.51190662
0.1777062 -0.050960906 -0.5115732
0.13992043 -0.050123144 -0.51189125
0.1777238 -0.050042987 -0.51162809
0.13991475 -0.049197912 -0.51187587
0.17774142 -0.049124878 -0.51168311
0.13990907 -0.04827274 -0.51186055
0.17775905 -0.048206575 -0.51173806
0.1399034 -0.04734762 -0.51184517
0.17777669 -0.047288071 -0.51179308
0.13989772 -0.046422552 -0.51182979
0.17779952 -0.046370726 -0.51186305
0.13989337 -0.04549798 -0.51181924
0.17782645 -0.045454174 -0.51194483
0.13989146 -0.044574216 -0.51181763
0.13988954 -0.043650448 -0.51181597
0.13988596 -0.042264614 -0.51181096
0.13988216 -0.040878732 -0.51180512
0.13987963 -0.039954834 -0.51180124
0.17674901 -0.039879259 -0.51152766
0.17677391 -0.038961865 -0.51160401
0.17679827 -0.03804408 -0.51167876
0.17682263 -0.037126027 -0.5117535
0.176847 -0.036207709 -0.5118283
0.17687136 -0.03528912 -0.51190311
0.17689575 -0.034370262 -0.51197791
0.17583703 -0.030191638 -0.51160675
0.17587274 -0.028812865 -0.51171708
0.17589654 -0.027893331 -0.51179057
0.17592038 -0.026973536 -0.51186419
0.17594418 -0.026053473 -0.5119378
0.17487876 -0.021418814 -0.51154691
0.13983922 -0.020558028 -0.51176643
0.17490038 -0.020498287 -0.5116145
0.13983391 -0.01963396 -0.51175243
0.17492197 -0.019577516 -0.51168197
0.13982715 -0.018248115 -0.51173574
0.17495443 -0.018195877 -0.51178336
0.13982259 -0.016862622 -0.51172715
0.1749869 -0.016813749 -0.51188475
0.13981955 -0.015938984 -0.51172143
0.17500854 -0.015892005 -0.5119524
0.13981651 -0.015015369 -0.51171565
0.13981347 -0.014091777 -0.51170993
0.13981044 -0.013168202 -0.51170421
0.13980615 -0.012244539 -0.51169389
0.13980103 -0.011320845 -0.51168054
0.13979635 -0.010397236 -0.5116688
0.17392439 -0.010340691 -0.5115087
0.13979758 -0.0094740679 -0.51167876
0.17394087 -0.0094185024 -0.51156151
0.13979886 -0.0085508646 -0.51168877
0.17395738 -0.0084961252 -0.51161444
0.13980012 -0.0076276264 -0.51169878
0.1739739 -0.0075735562 -0.51166731
0.17399041 -0.0066507966 -0.51172024
0.13980228 -0.0062427083 -0.5117147
0.17400695 -0.0057278466 -0.51177323
0.13980502 -0.0048577338 -0.51173282
0.17402346 -0.0048047053 -0.5118261
0.13980685 -0.0039343592 -0.51174492
0.17403999 -0.0038813734 -0.51187909
0.13980867 -0.0030109417 -0.51175702
0.17405654 -0.00295785 -0.51193202
0.1398081 -0.0020874441 -0.51176023
0.17407307 -0.0020341356 -0.511985
0.1398064 -0.0011639256 -0.5117594
0.13980466 -0.00024041015 -0.51175851
0.13980298 0.00068310217 -0.51175767
0.13980128 0.0016066114 -0.51175684
0.17298256 0.0016589337 -0.51151145
0.13979958 0.002530118 -0.51175606
0.1729987 0.0025823601 -0.5115636
0.1397979 0.0034536212 -0.51175523
0.17301485 0.0035059741 -0.51161563
0.13979615 0.0043771206 -0.51175427
0.13979495 0.0053006359 -0.51175523
0.13979436 0.0066859769 -0.51176119
0.17307138 0.0067401296 -0.51179814
0.13979378 0.0080713462 -0.51176715
0.13979341 0.0089949453 -0.51177114
0.17311181 0.0090516116 -0.5119285
0.13979301 0.0099185575 -0.51177508
0.17312799 0.0099765444 -0.51198071
0.17204475 0.013658939 -0.51152629
0.1720617 0.014583686 -0.511581
0.17208053 0.015508803 -0.51164138
0.13979033 0.016384253 -0.51180297
0.1720994 0.016434139 -0.51170188
0.13978994 0.01730798 -0.51180691
0.17211823 0.017359693 -0.51176226
0.13978936 0.018693602 -0.51181293
0.17214653 0.018748462 -0.51185292
0.13978969 0.02007938 -0.51182216
0.17217484 0.020137668 -0.5119437
0.13979043 0.021003339 -0.51183027
0.1397972 0.021928277 -0.51186049
0.13980585 0.02285363 -0.5118975
0.1398145 0.023779113 -0.51193458
0.14062457 0.023761362 -0.51151925
0.13982315 0.024704734 -0.51197165
0.14063327 0.024686232 -0.51155627
0.17110531 0.024735916 -0.51153189
0.140642 0.025611239 -0.51159334
0.17112032 0.02566158 -0.51158118
0.14065069 0.026536373 -0.51163036
0.17113534 0.026587427 -0.51163048
0.14065939 0.027461646 -0.51166737
0.17115246 0.027513787 -0.51168609
0.14066811 0.028387053 -0.51170439
0.14068027 0.029313309 -0.51175398
0.171211 0.029371278 -0.51186985
0.14153123 0.03114648 -0.51150095
0.14154601 0.032073215 -0.51155972
0.14156082 0.033000171 -0.51161849
0.17018874 0.03304705 -0.5115931
0.14158614 0.033929855 -0.51171535
0.1702223 0.033977348 -0.51169842
0.14245692 0.034842249 -0.51153016
0.17025584 0.034908019 -0.51180369
0.14253551 0.035785455 -0.51181751
0.16924319 0.035811719 -0.51154071
0.14342225 0.036701489 -0.51168972
0.16937274 0.036763359 -0.5119366
0.14350136 0.037646029 -0.51197726
0.14430854 0.037617072 -0.51156193
0.16837835 0.037670366 -0.51172847
0.14441957 0.038570289 -0.51196074
0.1452477 0.038546346 -0.51162195
0.16742785 0.038586568 -0.51165205
0.14619647 0.039478377 -0.51171482
0.16557916 0.039506923 -0.51165366
0.16660535 0.039532792 -0.51196814
0.14716086 0.040414944 -0.51186085
0.16373706 0.040428907 -0.51167589
0.16475981 0.04045476 -0.5119831
0.14902028 0.041345339 -0.51190412
0.1503128 0.041321959 -0.51158518
0.16095218 0.041344553 -0.51163858
0.15178971 0.042273428 -0.5118981
0.1526719 0.042263377 -0.51175719
0.15356007 0.042255115 -0.51163781
0.15448527 0.042257089 -0.51164246
0.15541397 0.042260021 -0.51165867
0.15634754 0.042264242 -0.5116905
0.15729998 0.042273507 -0.51178342
0.15825278 0.042282779 -0.5118764
0.15920591 0.042292051 -0.51196933
0.15643929 -0.066666633 -0.51142293
0.15735811 -0.066663407 -0.51140797
0.15827689 -0.066660181 -0.51139307
0.1591956 -0.066656955 -0.51137811
0.16014342 -0.066665873 -0.51145631
0.15038179 -0.065728448 -0.51123971
0.16563454 -0.065715946 -0.51130688
0.14536884 -0.064841896 -0.51146853
0.14617245 -0.064787507 -0.51104957
0.16937679 -0.06480743 -0.51145989
0.1434553 -0.063892409 -0.51123601
0.14248994 -0.062953055 -0.51108938
0.17482243 -0.062920198 -0.51118869
0.1416539 -0.062070645 -0.51140755
0.17673935 -0.062020358 -0.5113976
0.14159507 -0.061123002 -0.51120055
0.14156073 -0.060186524 -0.51108187
0.17760698 -0.060155205 -0.51124525
0.14154729 -0.05925921 -0.51103866
0.17758888 -0.05922696 -0.51119739
0.17758921 -0.058304947 -0.51120263
0.1776019 -0.057386905 -0.51124334
0.14073591 -0.05654031 -0.51145887
0.17761461 -0.056468718 -0.51128417
0.14072248 -0.055612616 -0.51141548
0.17762735 -0.055550389 -0.51132506
0.17764005 -0.054631911 -0.51136583
0.14070442 -0.053299934 -0.51136321
0.17766216 -0.053254802 -0.51143587
0.1406959 -0.051913388 -0.51134026
0.14069241 -0.050989896 -0.51133293
0.14069049 -0.050066985 -0.51133126
0.14068857 -0.049144078 -0.51132959
0.14068663 -0.048221178 -0.51132792
0.17659155 -0.048141554 -0.51103365
0.14068469 -0.047298286 -0.51132625
0.17660901 -0.047224302 -0.51108849
0.14068279 -0.046375401 -0.51132464
0.1766265 -0.046306863 -0.51114339
0.14068085 -0.045452524 -0.51132298
0.17664398 -0.04538922 -0.51119816
0.14067888 -0.044529632 -0.51132113
0.17666148 -0.044471383 -0.51125306
0.14067633 -0.043606572 -0.51131725
0.17667899 -0.043553352 -0.51130795
0.14067382 -0.042683534 -0.51131338
0.14067002 -0.041298993 -0.5113076
0.17672271 -0.041257381 -0.51144522
0.14066622 -0.039914485 -0.51130176
0.14066368 -0.038991503 -0.51129794
0.14066115 -0.038068529 -0.51129413
0.17564233 -0.037995264 -0.51100391
0.14065863 -0.037145566 -0.51129025
0.17566083 -0.037077226 -0.51106203
0.14065756 -0.036223002 -0.51129174
0.17568246 -0.036159623 -0.51112926
0.14065802 -0.035300814 -0.51129878
0.17570622 -0.0352422 -0.51120263
0.14065848 -0.034378599 -0.51130581
0.17573 -0.034324516 -0.51127613
0.14065817 -0.033456177 -0.51130998
0.17575379 -0.033406571 -0.51134956
0.14065629 -0.03253337 -0.51130849
0.17577757 -0.032488357 -0.51142299
0.14065439 -0.031610575 -0.51130694
0.17580134 -0.031569876 -0.51149648
0.14065252 -0.030687781 -0.51130545
0.14064969 -0.029303603 -0.51130313
0.14064686 -0.027919434 -0.51130086
0.17472762 -0.027855705 -0.51107472
0.14064497 -0.026996668 -0.51129937
0.1747492 -0.026936878 -0.51114213
0.14064306 -0.026073899 -0.51129782
0.17477077 -0.026017806 -0.51120955
0.1406412 -0.025151143 -0.51129633
0.17479236 -0.025098495 -0.51127702
0.14063929 -0.024228388 -0.51129478
0.17481394 -0.024178937 -0.51134443
0.1406363 -0.022383017 -0.51129454
0.17485715 -0.0223391 -0.51147944
0.14063466 -0.021460313 -0.51129395
0.14063148 -0.020537388 -0.51128775
0.14062831 -0.019614482 -0.51128155
0.14062512 -0.018691598 -0.51127529
0.14062035 -0.017307321 -0.51126605
0.17379507 -0.017250437 -0.51109606
0.1406156 -0.015923085 -0.51125669
0.17382728 -0.015869984 -0.51119715
0.14061241 -0.015000293 -0.5112505
0.17384872 -0.014949358 -0.51126462
0.14060923 -0.014077523 -0.5112443
0.17387019 -0.014028488 -0.51133204
0.14060605 -0.013154772 -0.51123804
0.17388593 -0.013106944 -0.5113827
0.14060554 -0.01223228 -0.51124156
0.17389846 -0.012184991 -0.51142383
0.14060551 -0.011309813 -0.51124674
0.17391099 -0.011262889 -0.51146501
0.14060569 -0.010387342 -0.51125276
0.14060612 -0.0094648674 -0.51125973
0.14060658 -0.0085423673 -0.51126671
0.14060704 -0.0076198434 -0.51127374
0.17283148 -0.0075654392 -0.51102126
0.14060751 -0.0066972938 -0.51128072
0.17284666 -0.0066438019 -0.51107055
0.14060877 -0.005313444 -0.51129341
0.17286946 -0.00526099 -0.51114446
0.14060658 -0.0039294302 -0.51129341
0.17289226 -0.0038778216 -0.51121837
0.14060587 -0.0030067698 -0.51129621
0.17290749 -0.0029554726 -0.51126772
0.14060554 -0.0020841046 -0.51130027
0.14060517 -0.0011614244 -0.51130432
0.17293791 -0.0011102406 -0.51136643
0.14060479 -0.00023872993 -0.51130837
0.17295311 -0.00018735731 -0.51141578
0.14060447 0.00068397925 -0.51131243
0.17296708 0.00073569862 -0.51146132
0.14060411 0.0016067033 -0.51131654
0.14060375 0.0025294418 -0.51132059
0.14060339 0.0034521946 -0.51132458
0.17189704 0.0035005435 -0.51103902
0.14060302 0.0043749618 -0.51132858
0.17191043 0.0044232341 -0.51108325
0.14060244 0.0057591405 -0.51133454
0.17193055 0.0058075893 -0.51114959
0.14060187 0.0071433485 -0.5113405
0.1406015 0.0080661718 -0.51134443
0.17196412 0.0081155943 -0.51126027
0.14060113 0.0089890109 -0.51134843
0.17197752 0.0090390835 -0.51130456
0.14060074 0.009911865 -0.51135242
0.17199095 0.0099627338 -0.51134878
0.14060037 0.010834732 -0.51135635
0.1720044 0.010886543 -0.51139313
0.17201781 0.011810513 -0.51143742
0.17203121 0.012734641 -0.51148164
0.14142044 0.014517422 -0.51100498
0.14060372 0.015449858 -0.51139528
0.14142106 0.015439809 -0.51101255
0.17095532 0.015489047 -0.51103956
0.14060475 0.01637301 -0.5114044
0.14142168 0.016362222 -0.51102006
0.17097031 0.016412932 -0.51108879
0.14060609 0.017757777 -0.51141727
0.14142258 0.017745895 -0.51103133
0.17099279 0.017799115 -0.51116258
0.14060698 0.019142546 -0.51142859
0.14142351 0.019129625 -0.51104265
0.17101529 0.019185657 -0.51123637
