# .PCD v0.7 - Point Cloud Data file format
VERSION 0.7
FIELDS x y z
SIZE 4 4 4
TYPE F F F
COUNT 1 1 1
WIDTH 1293
HEIGHT 1
VIEWPOINT 0 0 0 1 0 0 0
POINTS 1293
DATA ascii
-0.10344227 0.030381635 -0.53778815
-0.10348441 0.031363703 -0.53799921
-0.11695734 0.03325047 -0.53750515
-0.11606189 0.034242537 -0.53783828
-0.11505862 0.034234125 -0.53768039
-0.11405593 0.034225725 -0.53752261
-0.10639092 0.034266748 -0.53796047
-0.11315967 0.035218764 -0.53786063
-0.11215717 0.035210069 -0.5377028
-0.11071748 0.035217077 -0.53777206
-0.1092997 0.035231236 -0.53795058
-0.08477623 -0.068438269 -0.53723276
-0.13128541 -0.067545772 -0.53732485
-0.084749147 -0.067446671 -0.53705132
-0.13130462 -0.066585876 -0.53739709
-0.083834931 -0.066518471 -0.53738785
-0.084742814 -0.066471994 -0.53700143
-0.13132381 -0.065625712 -0.53746939
-0.08382678 -0.065541796 -0.53732574
-0.083839208 -0.064581186 -0.53739548
-0.083852261 -0.063620806 -0.53746921
-0.13126145 -0.062686391 -0.53719521
-0.08475472 -0.062602632 -0.53703779
-0.084767886 -0.061642621 -0.53711152
-0.084781073 -0.060682353 -0.53718525
-0.084794253 -0.059721809 -0.53725892
-0.084807426 -0.058761008 -0.53733271
-0.13129421 -0.057854339 -0.53729773
-0.085725442 -0.057758167 -0.53700525
-0.1313355 -0.056902751 -0.53746033
-0.085758746 -0.056810804 -0.53720421
-0.1313176 -0.055925377 -0.53738075
-0.085756995 -0.055839889 -0.53718358
-0.1312997 -0.054948293 -0.53730124
-0.085740611 -0.054859702 -0.53707135
-0.084832601 -0.054897308 -0.53745306
-0.13128181 -0.053971499 -0.53722179
-0.084816411 -0.053916816 -0.5373407
-0.13126394 -0.052994985 -0.53714228
-0.084833555 -0.052957542 -0.53743953
-0.13129272 -0.052037261 -0.53725374
-0.13124748 -0.051050339 -0.53706229
-0.085737184 -0.05097989 -0.53701121
-0.1312533 -0.0500836 -0.53707987
-0.085754484 -0.050020665 -0.53710991
-0.13130355 -0.049133416 -0.53727913
-0.085765749 -0.049057636 -0.53717077
-0.085777007 -0.048094377 -0.53723168
-0.13028909 -0.046692099 -0.53707331
-0.085793912 -0.046649057 -0.537323
-0.13128437 -0.045249607 -0.53717548
-0.08581081 -0.045203306 -0.53741443
-0.085819863 -0.044238031 -0.5374614
-0.13221857 -0.043301709 -0.53702474
-0.085809194 -0.043262649 -0.53738499
-0.085812725 -0.042294532 -0.53739738
-0.085823096 -0.041329674 -0.5374527
-0.086742185 -0.038399342 -0.53711516
-0.13323165 -0.037503406 -0.53716958
-0.08673957 -0.037428945 -0.53708941
-0.13322055 -0.036531374 -0.53711849
-0.086750463 -0.036464322 -0.53714734
-0.13320942 -0.03555952 -0.53706753
-0.086771592 -0.035503674 -0.53726858
-0.13319834 -0.034587856 -0.53701657
-0.08679273 -0.034542594 -0.53738993
-0.13428225 -0.033649694 -0.53747469
-0.087702177 -0.033551633 -0.53701675
-0.13427103 -0.032677475 -0.53742361
-0.087723516 -0.032590564 -0.53713799
-0.13426241 -0.031706057 -0.53738296
-0.08774063 -0.03162754 -0.53723335
-0.1342857 -0.030742092 -0.5374701
-0.087735534 -0.030656409 -0.5371927
-0.1332031 -0.02974575 -0.53700471
-0.087736197 -0.029687371 -0.53718728
-0.13322623 -0.028782146 -0.53709167
-0.087744154 -0.028720744 -0.53722656
-0.13324936 -0.027818227 -0.53717875
-0.087752111 -0.027753975 -0.53726584
-0.1332725 -0.026853997 -0.53726584
-0.087760061 -0.026787061 -0.53730512
-0.13327216 -0.025884895 -0.53725827
-0.08775685 -0.025816722 -0.53727603
-0.13330002 -0.024921089 -0.53736436
-0.087731056 -0.02484009 -0.5371086
-0.086823419 -0.024855997 -0.53748441
-0.1333279 -0.023956908 -0.53747058
-0.0867979 -0.023879288 -0.53731686
-0.086794682 -0.022909066 -0.53728741
-0.13225721 -0.021999734 -0.53704399
-0.086813115 -0.021944424 -0.53739196
-0.13228488 -0.021035546 -0.53715003
-0.08683157 -0.02097941 -0.53749663
-0.13231255 -0.020070978 -0.53725612
-0.086821482 -0.019037941 -0.53741509
-0.086775094 -0.018058825 -0.53711838
-0.086792894 -0.017093422 -0.53721905
-0.086812995 -0.015643481 -0.53732914
-0.086798191 -0.014187166 -0.53722322
-0.086822055 -0.013221768 -0.53736132
-0.086845919 -0.012255875 -0.53749949
-0.13424772 -0.011354175 -0.53719455
-0.087738901 -0.011278116 -0.5370245
-0.087762997 -0.010312331 -0.53716254
-0.087786332 -0.0093459701 -0.53729594
-0.087794453 -0.0083776722 -0.53733623
-0.087802574 -0.0074092303 -0.53737646
-0.087810695 -0.0064406432 -0.5374167
-0.13527688 -0.0055461759 -0.53739995
-0.087819017 -0.0054719243 -0.53745818
-0.13527118 -0.0045769541 -0.5373711
-0.13528974 -0.0036084852 -0.53743875
-0.088727891 0.0013099983 -0.53702915
-0.088749096 0.0022789433 -0.53714812
-0.088796176 0.0032492646 -0.53742373
-0.089719206 0.0042146333 -0.53713989
-0.134247 0.0051111309 -0.5370869
-0.089766778 0.0051859301 -0.5374155
-0.13432954 0.0060832114 -0.53741086
-0.090689279 0.0061502527 -0.53713167
-0.13330653 0.0070508136 -0.53718549
-0.090703592 0.0071198749 -0.53720731
-0.13337949 0.0080237053 -0.53747332
-0.090707339 0.0080888271 -0.53722036
-0.09071108 0.0090578273 -0.53723347
-0.090714842 0.010026875 -0.53724658
-0.090718597 0.010995969 -0.53725964
-0.091676667 0.012930172 -0.53718001
-0.09261933 0.013893196 -0.53702164
-0.12746827 0.015288493 -0.53700864
-0.093632273 0.015835492 -0.53726101
-0.094585873 0.016799813 -0.53716719
-0.09553913 0.01776379 -0.53707343
-0.12563749 0.018695388 -0.53743494
-0.095599949 0.018743912 -0.53740662
-0.096581213 0.019713638 -0.53746724
-0.12266458 0.020626584 -0.53712904
-0.098464638 0.020667894 -0.53716201
-0.12177428 0.021610256 -0.53746593
-0.099461675 0.021640843 -0.53730851
-0.11976738 0.022569252 -0.53714818
-0.10043697 0.022609299 -0.53733587
-0.11881384 0.02354203 -0.53720748
-0.10138535 0.023571573 -0.53722024
-0.11886039 0.024519989 -0.53741103
-0.11784266 0.024511406 -0.53718752
-0.11981005 0.025483038 -0.53731871
-0.1187921 0.025474057 -0.53709531
-0.11974122 0.026436374 -0.5370031
-0.10431206 0.030351002 -0.53727478
-0.10434334 0.031328768 -0.53742796
-0.11791878 0.032277998 -0.53747821
-0.11687538 0.032259062 -0.53713566
-0.10530126 0.032292429 -0.53736442
-0.11595338 0.033242054 -0.53734261
-0.11495106 0.033233941 -0.53718495
-0.11394932 0.033225834 -0.53702748
-0.10628082 0.033262707 -0.53741157
-0.11305383 0.034217324 -0.5373649
-0.11205228 0.034208927 -0.53720731
-0.10911776 0.034204639 -0.53706264
-0.10770122 0.034218442 -0.53724068
-0.13012789 -0.068414696 -0.53655171
-0.085662194 -0.068373688 -0.53671527
-0.13014691 -0.067456298 -0.53662378
-0.085655786 -0.067399554 -0.53666544
-0.13016592 -0.066497639 -0.5366959
-0.085649379 -0.066425592 -0.53661561
-0.13018496 -0.065538727 -0.53676796
-0.085641876 -0.065450981 -0.53655899
-0.084734984 -0.065496348 -0.53694206
-0.13020398 -0.064579546 -0.53684008
-0.08472839 -0.064521857 -0.53689051
-0.13022302 -0.063620113 -0.5369122
-0.084741563 -0.063562378 -0.53696418
-0.13015369 -0.062617905 -0.53661996
-0.08564245 -0.06254521 -0.53653359
-0.13114196 -0.061660863 -0.53669989
-0.085655726 -0.061586097 -0.53660709
-0.085669011 -0.060626723 -0.5366807
-0.085682288 -0.059667077 -0.53675425
-0.13118348 -0.058774218 -0.53685087
-0.08569558 -0.058707174 -0.53682786
-0.13020599 -0.057799783 -0.53680384
-0.086613692 -0.057706304 -0.53651029
-0.13025044 -0.056850597 -0.53698075
-0.12916732 -0.056798533 -0.536502
-0.086647287 -0.056759797 -0.53670889
-0.13023271 -0.055874094 -0.5369013
-0.086663902 -0.055801634 -0.53680223
-0.130215 -0.054897893 -0.53682196
-0.086647347 -0.054822143 -0.53669012
-0.13019729 -0.053921971 -0.53674263
-0.086630799 -0.053843066 -0.53657806
-0.085724242 -0.053879913 -0.53695911
-0.13019337 -0.052951939 -0.53672004
-0.085707866 -0.052900534 -0.53684694
-0.13023128 -0.051998701 -0.53686994
-0.085718513 -0.05193793 -0.53690392
-0.13019244 -0.051014844 -0.53670347
-0.1301645 -0.049067687 -0.53657573
-0.086628594 -0.048999302 -0.53651673
-0.13021432 -0.048118018 -0.53677464
-0.086639948 -0.048037216 -0.53657752
-0.086651288 -0.047074907 -0.5366382
-0.08666832 -0.045631021 -0.53672934
-0.13021904 -0.045214467 -0.53677505
-0.13220996 -0.044267647 -0.53699601
-0.13114427 -0.044233248 -0.53659588
-0.086685352 -0.044186693 -0.53682053
-0.086681806 -0.043216094 -0.53678906
-0.13212644 -0.042303413 -0.53664428
-0.086688161 -0.042250421 -0.5368188
-0.13213092 -0.041336711 -0.53665626
-0.086698614 -0.041286599 -0.536874
-0.13213542 -0.040369973 -0.53666824
-0.086709082 -0.040322583 -0.53692931
-0.13213988 -0.039403182 -0.53668016
-0.08671955 -0.03935837 -0.53698456
-0.13214439 -0.038436353 -0.5366922
-0.13213825 -0.03746647 -0.53666103
-0.08761692 -0.037391562 -0.53653246
-0.13212727 -0.036495358 -0.53661013
-0.087638214 -0.036432229 -0.5366534
-0.13211626 -0.035524428 -0.53655922
-0.087659515 -0.035472464 -0.53677446
-0.13210529 -0.034553681 -0.53650832
-0.087680846 -0.034512263 -0.53689563
-0.13318722 -0.033616375 -0.53696555
-0.088588826 -0.033522233 -0.5365231
-0.13317616 -0.032645088 -0.53691477
-0.088610351 -0.032562047 -0.5366441
-0.13316874 -0.031674851 -0.53687865
-0.088628061 -0.031600066 -0.53674203
-0.13317998 -0.030709043 -0.53691769
-0.088622905 -0.03062983 -0.5367015
-0.088627249 -0.029662916 -0.53671843
-0.13212234 -0.028751127 -0.53654009
-0.088635258 -0.028697131 -0.53675759
-0.13214527 -0.02778819 -0.53662699
-0.088643275 -0.027731206 -0.53679681
-0.088651285 -0.026765138 -0.53683597
-0.13216612 -0.025856489 -0.53669912
-0.088659301 -0.025798932 -0.53687525
-0.088637412 -0.024824206 -0.53673333
-0.13220192 -0.023926971 -0.53683203
-0.088611364 -0.023848874 -0.53656626
-0.087705269 -0.02386407 -0.53694129
-0.087679505 -0.022888657 -0.53677416
-0.087668926 -0.021917645 -0.53669995
-0.1311608 -0.021009089 -0.53651226
-0.087687522 -0.020953869 -0.53680438
-0.13118821 -0.020045659 -0.53661811
-0.087706119 -0.01998972 -0.53690875
-0.087676719 -0.019014781 -0.53671932
-0.13321584 -0.018125748 -0.53698152
-0.087663941 -0.018043952 -0.5366317
-0.1331865 -0.017153544 -0.53685695
-0.087690182 -0.017081037 -0.53678292
-0.087715656 -0.015633173 -0.53692466
-0.13314463 -0.01472851 -0.53667271
-0.087699823 -0.014177851 -0.53681362
-0.087690763 -0.013208198 -0.53674871
-0.13313471 -0.012308037 -0.53661728
-0.087714814 -0.012243405 -0.53688651
-0.13418226 -0.010380385 -0.53692645
-0.088630296 -0.010302089 -0.53655034
-0.13415258 -0.0094100712 -0.53680152
-0.088650778 -0.0093365088 -0.53666496
-0.13412291 -0.0084402077 -0.53667665
-0.088658966 -0.0083693508 -0.5367052
-0.088667125 -0.0074020484 -0.53674531
-0.13414864 -0.0065059583 -0.5367673
-0.088675305 -0.0064346022 -0.53678548
-0.13418604 -0.0055396012 -0.53691077
-0.088683493 -0.0054670107 -0.53682566
-0.13419107 -0.0045716241 -0.53692472
-0.08869312 -0.0044993474 -0.53687465
-0.13417387 -0.0036029993 -0.53684974
-0.088699207 -0.0035313668 -0.53690213
-0.13415666 -0.0026346452 -0.53677469
-0.088703759 -0.0025632428 -0.53692037
-0.13413946 -0.0016665615 -0.53669971
-0.13412225 -0.00069874839 -0.53662467
-0.088712893 -0.00062679756 -0.53695697
-0.13410506 0.00026879425 -0.53654975
-0.08871828 0.00034152722 -0.53698027
-0.089624174 0.0022750252 -0.53658938
-0.089671664 0.003244332 -0.53686452
-0.1341646 0.0041402215 -0.53676337
-0.090593256 0.0042086961 -0.53658116
-0.1331429 0.0051074675 -0.53653848
-0.090641238 0.0051789773 -0.53685629
-0.13322467 0.0060785557 -0.53686178
-0.091562286 0.0061422973 -0.53657299
-0.13220316 0.0070451745 -0.53663683
-0.091586009 0.007111629 -0.53670299
-0.13227004 0.0080167418 -0.53690207
-0.091589771 0.0080796694 -0.53671604
-0.13227941 0.0089853602 -0.53693384
-0.091593541 0.0090477569 -0.5367291
-0.13228877 0.0099540921 -0.53696561
-0.091597319 0.01001589 -0.53674215
-0.13229814 0.010922939 -0.53699744
-0.091601074 0.010984071 -0.53675514
-0.1313058 0.011890418 -0.53689104
-0.091612749 0.011953332 -0.53681457
-0.12935819 0.012860275 -0.53683394
-0.092560403 0.012916773 -0.53668892
-0.12735155 0.01382349 -0.53652656
-0.093513183 0.013880586 -0.53659528
-0.093572691 0.014857435 -0.53692794
-0.09452571 0.015821328 -0.53683424
-0.12648235 0.016739687 -0.53692234
-0.095478393 0.016784882 -0.5367406
-0.12548938 0.017705645 -0.53680801
-0.096430741 0.017748093 -0.53664696
-0.12449681 0.018671196 -0.53669363
-0.097382739 0.018710965 -0.53655344
-0.09649206 0.018727425 -0.53697968
-0.12355375 0.019644147 -0.53679252
-0.097444803 0.019690754 -0.53688693
-0.12156855 0.020606514 -0.53656477
-0.099325716 0.020643992 -0.53658241
-0.12067852 0.021589143 -0.536901
-0.10032264 0.02161604 -0.53673249
-0.11867321 0.02254693 -0.53657866
-0.10128535 0.022580879 -0.53669858
-0.11772054 0.023518676 -0.5366379
-0.10223242 0.023542015 -0.53658319
-0.11676766 0.024490641 -0.53669721
-0.10275621 0.02451808 -0.53678626
-0.117775 0.025465084 -0.53687209
-0.11675873 0.025456119 -0.53664899
-0.1037031 0.02547895 -0.53667086
-0.1187239 0.026427004 -0.53677994
-0.11770742 0.026417647 -0.53655702
-0.10464959 0.026439399 -0.53655553
-0.11974013 0.027404074 -0.5369913
-0.10468918 0.027416892 -0.53675038
-0.10469656 0.028386366 -0.5367803
-0.10471476 0.029358977 -0.53686565
-0.1051802 0.030320432 -0.53676242
-0.11778688 0.031274222 -0.53688413
-0.11678983 0.031268012 -0.53674942
-0.11579325 0.031261802 -0.53661489
-0.10564506 0.031281523 -0.53665948
-0.11587767 0.032252483 -0.53699893
-0.1148733 0.032243904 -0.53682882
-0.11386956 0.032235328 -0.53665882
-0.10613543 0.03224992 -0.53668422
-0.11294816 0.033217732 -0.53687006
-0.11094759 0.033201542 -0.53655547
-0.10709964 0.033214569 -0.53666019
-0.11006156 0.034195442 -0.53694403
-0.086567618 -0.068325937 -0.53632987
-0.086561136 -0.067352511 -0.53628016
-0.086554639 -0.066379249 -0.53623033
-0.12904906 -0.06545195 -0.53606838
-0.086547479 -0.065405667 -0.53617644
-0.12906793 -0.064494014 -0.53614032
-0.086535171 -0.064428449 -0.53609067
-0.085629702 -0.064473055 -0.5364731
-0.12908679 -0.06353581 -0.53621227
-0.085629165 -0.063504055 -0.53646004
-0.086522877 -0.063451543 -0.53600496
-0.1290483 -0.062549569 -0.53604603
-0.086528502 -0.0624879 -0.53603029
-0.13003536 -0.061593533 -0.53612572
-0.086541891 -0.061529677 -0.53610367
-0.13105558 -0.060652446 -0.53634
-0.086555287 -0.060571201 -0.5361771
-0.13107294 -0.059692577 -0.53640479
-0.086568683 -0.059612453 -0.53625059
-0.13009626 -0.058718868 -0.53635782
-0.08658208 -0.058653444 -0.53632402
-0.12911975 -0.05774533 -0.53631085
-0.1280861 -0.056746565 -0.53602409
-0.087534197 -0.056708883 -0.53621447
-0.12914976 -0.055822913 -0.53642279
-0.087568119 -0.055762529 -0.53641284
-0.12913224 -0.054847583 -0.53634351
-0.087552793 -0.054784648 -0.53630948
-0.1291147 -0.053872533 -0.5362643
-0.087536067 -0.053806271 -0.5361976
-0.12913376 -0.052912764 -0.53633702
-0.087519348 -0.052828304 -0.53608572
-0.086614251 -0.052864391 -0.53646606
-0.12917136 -0.051960193 -0.53648674
-0.12811291 -0.05192174 -0.53610408
-0.086597718 -0.051886134 -0.53635412
-0.1291388 -0.050979387 -0.53634512
-0.086601719 -0.050920349 -0.53636932
-0.13014393 -0.050027862 -0.53649712
-0.12909071 -0.049993079 -0.53613907
-0.086617261 -0.049961172 -0.53645605
-0.12907776 -0.048053678 -0.53607255
-0.12912713 -0.047104519 -0.5362711
-0.12917648 -0.046154659 -0.53646976
-0.087523639 -0.046057705 -0.53604609
-0.12915526 -0.045179375 -0.53637522
-0.087535076 -0.045096133 -0.53610671
-0.13055792 -0.043714132 -0.53617072
-0.087549493 -0.043651987 -0.53618085
-0.13103157 -0.042260829 -0.53612214
-0.087561704 -0.042206399 -0.53624147
-0.13103604 -0.04129507 -0.53613412
-0.087572254 -0.04124362 -0.53629667
-0.13104048 -0.040329266 -0.53614604
-0.087582789 -0.040280636 -0.53635174
-0.13104495 -0.039363414 -0.53615797
-0.087593332 -0.039317455 -0.53640687
-0.13104942 -0.038397525 -0.53616995
-0.088498436 -0.038324062 -0.53602219
-0.08760649 -0.03835522 -0.53647804
-0.13104691 -0.037429601 -0.53615344
-0.088502854 -0.037358653 -0.53603965
-0.13103604 -0.036459409 -0.53610265
-0.088524334 -0.036400199 -0.53616047
-0.13102517 -0.035489399 -0.53605187
-0.088545822 -0.035441305 -0.53628129
-0.13101429 -0.034519568 -0.53600103
-0.088567324 -0.034481987 -0.53640217
-0.13209429 -0.033583123 -0.53645748
-0.089473858 -0.033492889 -0.53603035
-0.13208467 -0.03261308 -0.53641212
-0.089495562 -0.032533582 -0.53615117
-0.089513868 -0.031572644 -0.5362516
-0.1320765 -0.030676063 -0.53636646
-0.089508653 -0.030603305 -0.53621119
-0.13209942 -0.029713752 -0.53645325
-0.089516729 -0.029638501 -0.53625035
-0.089524806 -0.028673559 -0.53628945
-0.13104346 -0.027758218 -0.53607631
-0.089532875 -0.02770848 -0.53632861
-0.089540944 -0.026743256 -0.53636771
-0.1310626 -0.025828183 -0.53614205
-0.08954902 -0.025777891 -0.53640682
-0.13106091 -0.024860857 -0.53612894
-0.089542508 -0.024808343 -0.53635859
-0.13107862 -0.023897108 -0.53619498
-0.089516185 -0.023833698 -0.53619176
-0.131106 -0.022934815 -0.53630072
-0.0894899 -0.022859663 -0.53602505
-0.088585325 -0.022874149 -0.5363993
-0.13113339 -0.021972142 -0.53640652
-0.088559307 -0.021900026 -0.53623241
-0.088541262 -0.020928394 -0.53611386
-0.088560008 -0.019965485 -0.53621799
-0.13113269 -0.019069783 -0.5363847
-0.088533089 -0.018992402 -0.53604567
-0.13210009 -0.018103989 -0.53638095
-0.088559538 -0.018030807 -0.53619653
-0.088586025 -0.017068675 -0.53634757
-0.089507118 -0.016094433 -0.53606361
-0.088612512 -0.016105996 -0.53649855
-0.089526631 -0.015130776 -0.53617132
-0.088613778 -0.014654646 -0.53649229
-0.08951129 -0.014161213 -0.53607017
-0.088591009 -0.013199653 -0.53634042
-0.088581748 -0.012230967 -0.53627509
-0.13306606 -0.011334486 -0.53633434
-0.088606015 -0.011266775 -0.53641266
-0.089513198 -0.0093270708 -0.53603554
-0.08952143 -0.0083610499 -0.53607565
-0.13302563 -0.007463634 -0.53614652
-0.089529656 -0.0073948847 -0.53611571
-0.13306266 -0.0064986469 -0.53628963
-0.089537889 -0.0064285747 -0.53615576
-0.13309973 -0.0055331453 -0.5364328
-0.089546122 -0.0054621203 -0.53619581
-0.13310722 -0.0045661121 -0.53645676
-0.089554846 -0.0044955458 -0.53623885
-0.13309571 -0.0035984793 -0.53640419
-0.089559838 -0.0035286702 -0.53625953
-0.13307868 -0.0026309264 -0.53632927
-0.08956442 -0.0025617077 -0.53627777
-0.13306163 -0.0016636436 -0.53625441
-0.08956901 -0.0015946797 -0.53629601
-0.13304459 -0.00069663115 -0.5361796
-0.089573592 -0.00062758574 -0.53631425
-0.13302757 0.00027011149 -0.53610474
-0.089578182 0.00033957395 -0.53633249
-0.13408788 0.0012360667 -0.53647482
-0.13301054 0.0012365843 -0.53602993
-0.089586556 0.0013068547 -0.53637338
-0.13407068 0.0022030689 -0.5363999
-0.090497434 0.0022711155 -0.5360319
-0.13408227 0.0031704817 -0.53644013
-0.090545319 0.0032394098 -0.53630638
-0.13306122 0.0041375482 -0.53621554
-0.091465473 0.0042027724 -0.53602374
-0.091513857 0.0051720385 -0.53629822
-0.13212205 0.0060739089 -0.53631383
-0.09243349 0.0061343582 -0.53601545
-0.13110203 0.0070395465 -0.53608936
-0.092466787 0.0071033994 -0.53619963
-0.13116294 0.0080097951 -0.53633207
-0.092470571 0.0080705285 -0.53621262
-0.13117222 0.0089773862 -0.53636378
-0.092474349 0.0090377042 -0.53622568
-0.13118152 0.0099450909 -0.53639549
-0.092478141 0.010004926 -0.53623873
-0.13119392 0.010913171 -0.5364399
-0.092481926 0.010972196 -0.53625172
-0.093423769 0.01193427 -0.53609991
-0.092514165 0.011943186 -0.5364297
-0.12820053 0.012842814 -0.53603929
-0.093463793 0.012906334 -0.53632075
-0.094439492 0.014356597 -0.5363577
-0.12633896 0.01575386 -0.53632021
-0.095417723 0.015807187 -0.53640819
-0.12534712 0.016718941 -0.53620607
-0.09636949 0.016769977 -0.53631473
-0.1243557 0.01768362 -0.53609198
-0.097320922 0.017732425 -0.53622127
-0.12245749 0.01962512 -0.53622901
-0.098334394 0.019673495 -0.53645986
-0.12047486 0.020586487 -0.53600174
-0.11958504 0.021568077 -0.53633726
-0.11758135 0.022524655 -0.53601032
-0.10213172 0.022552522 -0.53606278
-0.11662957 0.023495372 -0.53606951
-0.11567756 0.024466308 -0.53612864
-0.11574331 0.025447164 -0.53642619
-0.11472537 0.025437465 -0.53618777
-0.11669179 0.026408294 -0.53633428
-0.11567696 0.026398947 -0.53611165
-0.11865579 0.027378835 -0.53646499
-0.11763991 0.027369088 -0.53624231
-0.11662491 0.02735935 -0.5360198
-0.11858773 0.028329549 -0.5361504
-0.11761464 0.029295901 -0.53611302
-0.10601497 0.029314587 -0.53609842
-0.11770071 0.030284353 -0.53649831
-0.11670438 0.03027839 -0.53636384
-0.11570854 0.03027243 -0.53622943
-0.11471324 0.030266475 -0.53609514
-0.10604668 0.030289918 -0.53625101
-0.11479721 0.031255599 -0.53648037
-0.11379696 0.031248113 -0.5363239
-0.1127945 0.031239856 -0.53615427
-0.11286645 0.032226756 -0.53648895
-0.11186396 0.032218188 -0.5363192
-0.11086212 0.032209631 -0.53614956
-0.10697539 0.032209899 -0.53604531
-0.10994817 0.033193454 -0.53639835
-0.10894935 0.033185367 -0.53624129
-0.1079937 0.033190385 -0.53629589
-0.12899253 -0.068324231 -0.53585267
-0.08837457 -0.068230636 -0.53556073
-0.087471746 -0.068278253 -0.535945
-0.12901136 -0.067367055 -0.53592455
-0.088367924 -0.067258619 -0.53551114
-0.087465182 -0.067305528 -0.53589535
-0.12903023 -0.066409633 -0.53599644
-0.087458618 -0.066332974 -0.5358457
-0.087451786 -0.065360419 -0.53579444
-0.087439343 -0.064383902 -0.53570879
-0.1279535 -0.063451745 -0.53551418
-0.087426908 -0.063407704 -0.53562319
-0.087414473 -0.06243182 -0.53553754
-0.12893111 -0.061526358 -0.53555286
-0.087426394 -0.06147337 -0.5356012
-0.12991723 -0.060571056 -0.53563237
-0.087439887 -0.06051578 -0.53567445
-0.12998672 -0.059636425 -0.53591251
-0.08745341 -0.05955793 -0.53574777
-0.12901102 -0.058663614 -0.53586566
-0.08746691 -0.058599815 -0.53582114
-0.1280355 -0.057690971 -0.53581876
-0.088385284 -0.057602875 -0.53552312
-0.12700684 -0.05669469 -0.53554708
-0.088419467 -0.056658071 -0.53572094
-0.12806873 -0.055771817 -0.535945
-0.08845368 -0.055712566 -0.53591889
-0.12805139 -0.054797351 -0.53586584
-0.089359812 -0.054709803 -0.53554976
-0.088456936 -0.054747194 -0.53592932
-0.12803839 -0.053825025 -0.53580517
-0.088440031 -0.053769525 -0.53581762
-0.12807564 -0.052873649 -0.53595459
-0.12701905 -0.052834582 -0.53557265
-0.088423133 -0.052792259 -0.53570586
-0.12705597 -0.051883332 -0.5357219
-0.08840625 -0.051815409 -0.53559428
-0.087502614 -0.051850744 -0.53597391
-0.12808655 -0.050943982 -0.53598732
-0.12703571 -0.050908621 -0.53562993
-0.087485909 -0.050873589 -0.53586209
-0.12803891 -0.049958341 -0.5357815
-0.088402249 -0.049879707 -0.53555143
-0.087485418 -0.049906086 -0.53584963
-0.12904267 -0.049007535 -0.5359332
-0.12799132 -0.048973467 -0.53557593
-0.088408597 -0.048916593 -0.53558052
-0.087491214 -0.04894216 -0.53587574
-0.088414431 -0.047953095 -0.53560656
-0.087500773 -0.047980197 -0.53592491
-0.12799302 -0.047041554 -0.53557026
-0.08751221 -0.047019053 -0.53598547
-0.088420279 -0.046989512 -0.53563267
-0.12804194 -0.046092913 -0.53576845
-0.088426121 -0.046025835 -0.53565878
-0.12809087 -0.045143563 -0.53596675
-0.088431977 -0.045062061 -0.53568494
-0.12995347 -0.042706303 -0.5356645
-0.088449433 -0.042653568 -0.53576738
-0.12994327 -0.041253511 -0.535613
-0.08938285 -0.041189715 -0.53555882
-0.088465706 -0.041210841 -0.5358519
-0.12994769 -0.040288638 -0.53562486
-0.089393847 -0.040228188 -0.5356155
-0.088476606 -0.040248789 -0.5359087
-0.12995213 -0.039323721 -0.53563678
-0.089404851 -0.03926646 -0.53567225
-0.088487521 -0.039286528 -0.53596544
-0.12995656 -0.038358767 -0.5356487
-0.08941526 -0.038304266 -0.53572541
-0.12995763 -0.037392806 -0.53564686
-0.089412421 -0.037336357 -0.53569919
-0.12994689 -0.03642353 -0.53559619
-0.08940959 -0.036368541 -0.53567302
-0.1299361 -0.035454437 -0.53554541
-0.089430496 -0.035410214 -0.53578901
-0.08945217 -0.034451764 -0.53590965
-0.13100342 -0.033549931 -0.5359503
-0.090357251 -0.033463605 -0.53553855
-0.090379134 -0.03250517 -0.53565913
-0.13098793 -0.031612702 -0.53587437
-0.090398043 -0.031545267 -0.53576207
-0.13098066 -0.030644409 -0.53583831
-0.090396538 -0.03057809 -0.53574401
-0.130998 -0.029681817 -0.53590298
-0.09040466 -0.02961413 -0.53578305
-0.13102072 -0.028720172 -0.53598958
-0.090412788 -0.028650032 -0.53582209
-0.12994386 -0.027728304 -0.53552675
-0.090420917 -0.027685789 -0.53586119
-0.090429045 -0.026721409 -0.53590024
-0.12996134 -0.025799938 -0.53558606
-0.090437189 -0.02575689 -0.53593934
-0.1299597 -0.024833612 -0.53557301
-0.091331981 -0.024772102 -0.53551161
-0.12995806 -0.023867333 -0.53555989
-0.090419754 -0.023818547 -0.5358178
-0.12998509 -0.022906156 -0.53566498
-0.090393186 -0.022845196 -0.53565127
-0.089463614 -0.021886228 -0.53585839
-0.13003939 -0.020982696 -0.53587598
-0.089437351 -0.020913402 -0.53569186
-0.13006656 -0.020020399 -0.5359816
-0.089411691 -0.019941311 -0.53552902
-0.13002048 -0.019046992 -0.53578544
-0.089427002 -0.018978499 -0.53561145
-0.13098679 -0.018082274 -0.53578168
-0.089453682 -0.018017687 -0.53576213
-0.13197725 -0.017120708 -0.53587592
-0.089480393 -0.017056331 -0.53591287
-0.13196011 -0.016152186 -0.53580016
-0.090400256 -0.016082888 -0.53562939
-0.13193952 -0.014700501 -0.53570706
-0.09042117 -0.014637072 -0.53573966
-0.09039963 -0.01318439 -0.53559828
-0.089495942 -0.013192017 -0.53596908
-0.13193338 -0.012284726 -0.53566653
-0.089480609 -0.012223187 -0.53586805
-0.089471154 -0.01125546 -0.53580219
-0.13298438 -0.010360943 -0.53599894
-0.089495637 -0.010291873 -0.53593957
-0.13295159 -0.0093920641 -0.53586054
-0.1319052 -0.008419103 -0.53552717
-0.1319419 -0.0074554831 -0.53566998
-0.13197862 -0.0064913486 -0.5358128
-0.090410069 -0.0064233872 -0.53559637
-0.13201536 -0.0055267015 -0.53595573
-0.090428486 -0.0054585552 -0.53569639
-0.13202113 -0.0045604673 -0.53597289
-0.090445921 -0.0044933134 -0.5357905
-0.13201936 -0.0035939668 -0.53595942
-0.13200247 -0.002627214 -0.53588468
-0.090441033 -0.0025606863 -0.53574336
-0.13198559 -0.0016607308 -0.53580987
-0.090437986 -0.0015944896 -0.53571618
-0.13196872 -0.0006945174 -0.53573519
-0.090434931 -0.0006283907 -0.535689
-0.13195185 0.00027142657 -0.53566045
-0.090436853 0.00033762856 -0.53569126
-0.13193499 0.001237101 -0.53558576
-0.090449594 0.001303812 -0.5357576
-0.13299352 0.0022027874 -0.53595513
-0.13191813 0.0022025066 -0.53551108
-0.13299164 0.0031690821 -0.53594142
-0.13192281 0.0031681594 -0.53552383
-0.091417141 0.003234498 -0.53574944
-0.13196009 0.0041348804 -0.53566897
-0.13204102 0.0051038112 -0.53599119
-0.092384666 0.0051651141 -0.53574127
-0.13102166 0.0060692714 -0.53576696
-0.13000315 0.0070339302 -0.53554296
-0.13005817 0.0080028614 -0.53576326
-0.093349703 0.0080614043 -0.53571022
-0.13006739 0.0089694299 -0.53579491
-0.09335351 0.0090276711 -0.53572321
-0.1300766 0.0099361101 -0.53582656
-0.093357302 0.0099939844 -0.53573614
-0.13010579 0.01090458 -0.53594047
-0.094293863 0.01095493 -0.5355612
-0.093385704 0.010963232 -0.53589034
-0.1290611 0.011865136 -0.53560752
-0.094332241 0.011925364 -0.53577048
-0.094371967 0.012896734 -0.53598732
-0.096248113 0.014334752 -0.53566062
-0.095341668 0.014345242 -0.53599364
-0.1252052 0.015734449 -0.53560555
-0.097669564 0.015776483 -0.53550059
-0.096311368 0.015793568 -0.53599983
-0.097712323 0.016749205 -0.53572661
-0.12330192 0.017672667 -0.53571177
-0.12229235 0.017667906 -0.5355193
-0.098660894 0.017710315 -0.5356248
-0.12238008 0.018646659 -0.53589678
-0.1213318 0.018635608 -0.53553343
-0.098715924 0.018686324 -0.53591532
-0.1213995 0.019611944 -0.53582537
-0.099666215 0.01964771 -0.53582203
-0.10062205 0.020609964 -0.53576016
-0.11849385 0.021547055 -0.53577471
-0.11554088 0.023472114 -0.53550225
-0.10307749 0.023512524 -0.53594768
-0.11458978 0.024442026 -0.53556126
-0.10402285 0.024472108 -0.53583264
-0.11363846 0.025412155 -0.53562033
-0.10496779 0.025431279 -0.53571767
-0.11364989 0.026380284 -0.535667
-0.10591234 0.026390027 -0.53560275
-0.11561073 0.027349619 -0.53579748
-0.1145974 0.027339896 -0.53557533
-0.10597832 0.027372496 -0.53592873
-0.11757252 0.028319415 -0.53592795
-0.11655811 0.028309293 -0.53570575
-0.10598577 0.028340479 -0.53595859
-0.11661905 0.029290186 -0.53597879
-0.11562396 0.029284475 -0.53584456
-0.11462939 0.029278766 -0.53571045
-0.10687958 0.029285073 -0.53558832
-0.11371839 0.03026052 -0.53596085
-0.11272261 0.030254189 -0.53581995
-0.11172143 0.030246252 -0.53565061
-0.1069115 0.030259458 -0.53574055
-0.11179265 0.031231603 -0.53598469
-0.11079144 0.031223359 -0.53581524
-0.10979085 0.031215118 -0.53564584
-0.10694342 0.031234397 -0.53589284
-0.10986088 0.032201078 -0.53597999
-0.10886028 0.032192525 -0.53581047
-0.10786031 0.032183979 -0.53564119
-0.12785946 -0.068716519 -0.53515589
-0.12787879 -0.06727805 -0.53522718
-0.089269362 -0.06721177 -0.53512746
-0.12789746 -0.066321865 -0.53529888
-0.089262642 -0.066240624 -0.53507793
-0.088361278 -0.066286772 -0.53546154
-0.12791613 -0.065365404 -0.53537065
-0.089255914 -0.065269671 -0.53502846
-0.088354625 -0.065315105 -0.53541189
-0.1279348 -0.064408697 -0.53544235
-0.088342227 -0.064339429 -0.53532743
-0.08832965 -0.063363932 -0.53524196
-0.12794526 -0.062481374 -0.53547323
-0.088317089 -0.062388755 -0.53515649
-0.088309236 -0.061417159 -0.53509957
-0.088322841 -0.060460463 -0.53517276
-0.12890247 -0.059580378 -0.53542113
-0.08833646 -0.059503507 -0.53524595
-0.12792777 -0.058608461 -0.53537434
-0.088351108 -0.058546975 -0.53532541
-0.12695323 -0.057636712 -0.53532755
-0.089268625 -0.057551298 -0.5350309
-0.12592946 -0.056642901 -0.53507084
-0.089303099 -0.056607351 -0.53522837
-0.12698965 -0.05572081 -0.5354681
-0.08933761 -0.055662699 -0.53542596
-0.12697245 -0.054747228 -0.53538913
-0.090254746 -0.05466843 -0.53513128
-0.12698214 -0.053785294 -0.53542346
-0.12592733 -0.053745624 -0.53504223
-0.090244144 -0.053696197 -0.53505933
-0.089342721 -0.053732831 -0.53543818
-0.089325652 -0.052756276 -0.53532666
-0.12600055 -0.051844988 -0.53534025
-0.089308582 -0.05178012 -0.53521514
-0.12598628 -0.050873313 -0.53527308
-0.089300461 -0.05080945 -0.53515726
-0.088389367 -0.050838958 -0.53548265
-0.12593949 -0.049889006 -0.5350678
-0.089314148 -0.049851175 -0.5352301
-0.12694132 -0.04893944 -0.53521901
-0.089324929 -0.048891045 -0.53528547
-0.12794416 -0.047989503 -0.5353722
-0.12689421 -0.047955982 -0.53501385
-0.090246201 -0.047903102 -0.53501689
-0.08933083 -0.047928091 -0.53531164
-0.090252131 -0.04694058 -0.53504294
-0.089336708 -0.046965029 -0.53533769
-0.12691034 -0.04603133 -0.53506899
-0.089342602 -0.046001885 -0.53536373
-0.090258062 -0.045977965 -0.53506899
-0.1269588 -0.045083195 -0.53526676
-0.090263985 -0.045015257 -0.53509504
-0.089348495 -0.045038648 -0.53538984
-0.1279567 -0.04413034 -0.5353989
-0.12689732 -0.044096146 -0.5350011
-0.090269923 -0.044052452 -0.53512114
-0.089354381 -0.04407531 -0.53541589
-0.12889041 -0.043155383 -0.53526258
-0.090278 -0.043090586 -0.53515995
-0.089366697 -0.042631768 -0.53547591
-0.12886462 -0.041698609 -0.53514582
-0.090293437 -0.041649014 -0.53523767
-0.12885703 -0.040248092 -0.53510475
-0.091225281 -0.040187061 -0.53503007
-0.090310074 -0.040207617 -0.53532267
-0.12886143 -0.039284114 -0.53511661
-0.090321161 -0.03924641 -0.53537929
-0.12886584 -0.038320091 -0.53512853
-0.091244169 -0.03826404 -0.53512287
-0.090330236 -0.038284142 -0.53542393
-0.12887022 -0.037356023 -0.5351404
-0.091241241 -0.037297223 -0.5350967
-0.09032736 -0.037316777 -0.53539777
-0.12885977 -0.036387719 -0.53509063
-0.091238327 -0.036330502 -0.5350706
-0.090324469 -0.036349513 -0.5353716
-0.12884912 -0.035419539 -0.53503996
-0.091235392 -0.035363872 -0.53504437
-0.0903216 -0.035382334 -0.53534544
-0.12992536 -0.034485526 -0.53549474
-0.091232486 -0.034397338 -0.53501827
-0.090335384 -0.0344216 -0.53541803
-0.12991494 -0.033516888 -0.53544551
-0.091239028 -0.033434365 -0.53504765
-0.12990776 -0.03254924 -0.53540957
-0.091261081 -0.032476809 -0.53516793
-0.12990057 -0.031581715 -0.53537363
-0.091280609 -0.031517945 -0.53527349
-0.12989336 -0.030614326 -0.53533763
-0.091282867 -0.03055292 -0.53527766
-0.12989882 -0.029649947 -0.53535372
-0.091291048 -0.029589802 -0.53531665
-0.12992135 -0.028689282 -0.53544027
-0.091299236 -0.028626544 -0.53535563
-0.091307417 -0.027663145 -0.53539461
-0.12886401 -0.026737124 -0.53504437
-0.091315605 -0.026699603 -0.53543365
-0.12886237 -0.025771748 -0.53503126
-0.091323793 -0.025735924 -0.53547263
-0.12886074 -0.024806421 -0.53501821
-0.12885915 -0.023841141 -0.53500515
-0.091322035 -0.023803415 -0.53544432
-0.12886682 -0.022877561 -0.53503066
-0.09129522 -0.022830747 -0.53527802
-0.12889372 -0.021917149 -0.53513592
-0.091268413 -0.021858685 -0.53511184
-0.090366647 -0.021872448 -0.53548485
-0.12892061 -0.020956364 -0.53524119
-0.09034013 -0.020900305 -0.53531861
-0.12894753 -0.0199952 -0.53534657
-0.090313606 -0.019928766 -0.53515238
-0.12891075 -0.019024253 -0.53518748
-0.090319462 -0.018964622 -0.53517795
-0.129876 -0.01806061 -0.53518373
-0.090346381 -0.018004585 -0.53532839
-0.13084124 -0.017096987 -0.53518003
-0.091264792 -0.017031703 -0.53504556
-0.090373315 -0.017044008 -0.53547883
-0.091291964 -0.016071361 -0.53519589
-0.091319166 -0.015110482 -0.53534633
-0.091309868 -0.013660698 -0.53527838
-0.091286391 -0.012209291 -0.53512716
-0.090384126 -0.012216235 -0.53549737
-0.13188818 -0.01131486 -0.53547686
-0.09127073 -0.011242171 -0.53502637
-0.090368629 -0.01124844 -0.5353964
-0.13180739 -0.010342883 -0.53514254
-0.09035898 -0.010281678 -0.53533018
-0.13186097 -0.0093816733 -0.5353539
-0.09127152 -0.0093122972 -0.53501296
-0.090373583 -0.0093176551 -0.53540754
-0.1308237 -0.0084101157 -0.5350517
-0.091290087 -0.0083490582 -0.5351128
-0.090381868 -0.0083527667 -0.53544754
-0.13086008 -0.0074473466 -0.53519422
-0.091308653 -0.0073854593 -0.53521258
-0.090391658 -0.0073878593 -0.53549641
-0.13089649 -0.0064840643 -0.53533685
-0.092243381 -0.0064196172 -0.53502882
-0.09132722 -0.0064215013 -0.53531247
-0.12985237 -0.0055138473 -0.53500408
-0.092262127 -0.0054558129 -0.53512865
-0.091345809 -0.0054571838 -0.53541237
-0.12985481 -0.004549209 -0.53500777
-0.092276834 -0.0044914521 -0.53520507
-0.091361888 -0.0044923825 -0.53549767
-0.13093944 -0.003589316 -0.53549361
-0.12985723 -0.0035845581 -0.53501147
-0.092276871 -0.0025610887 -0.53518748
-0.091359444 -0.0025608875 -0.5354653
-0.13091134 -0.0016578228 -0.53536612
-0.092273742 -0.0015958999 -0.53516036
-0.091356345 -0.0015951952 -0.53543818
-0.13089463 -0.00069240713 -0.53529149
-0.092270598 -0.00063080882 -0.53513324
-0.091353253 -0.00062960043 -0.535411
-0.13087794 0.0002727395 -0.53521693
-0.092267469 0.00033418438 -0.53510618
-0.091350161 0.00033589627 -0.53538388
-0.13086122 0.0012376172 -0.53514236
-0.092269227 0.0012991488 -0.53510749
-0.091350362 0.0013013419 -0.53537601
-0.13084716 0.0022022701 -0.53507853
-0.092274316 0.0022641995 -0.53512806
-0.091368869 0.002267214 -0.53547549
-0.13085561 0.0031672383 -0.53510684
-0.092287168 0.0032295964 -0.53519374
-0.13086407 0.0041323085 -0.53513515
-0.092335887 0.0041968599 -0.53546733
-0.13094139 0.0051001627 -0.53544497
-0.093253672 0.0051582041 -0.53518552
-0.12992351 0.0060646432 -0.53522122
-0.093302891 0.0061264364 -0.53545916
-0.094220132 0.0070867417 -0.53517735
-0.12895574 0.0079959426 -0.53519565
-0.094227187 0.0080522969 -0.53520864
-0.094231009 0.0090176566 -0.53522164
-0.12897827 0.009927474 -0.53527641
-0.095162213 0.0099775614 -0.53502363
-0.094255514 0.0099852532 -0.53535211
-0.12901969 0.010896006 -0.53544194
-0.095200911 0.010946638 -0.53523248
-0.12797664 0.011855675 -0.53510958
-0.096145861 0.011907587 -0.53511298
-0.095239609 0.011916469 -0.53544146
-0.12704627 0.012825404 -0.53524691
-0.096658558 0.013358076 -0.53526855
-0.12613051 0.013797287 -0.53544837
-0.1250636 0.014752161 -0.53500634
-0.098079033 0.014799195 -0.53510863
-0.097174682 0.014809964 -0.53544092
-0.099025525 0.015759425 -0.53500217
-0.12421492 0.016698252 -0.5354917
-0.12318325 0.016690832 -0.53520292
-0.1221747 0.016686428 -0.53501087
-0.099068806 0.016731231 -0.53522772
-0.12126417 0.017660335 -0.53524172
-0.1000153 0.017691281 -0.53512114
-0.12028496 0.01862457 -0.53517056
-0.1009614 0.018650942 -0.53501457
-0.10005902 0.018664112 -0.53534675
-0.12035204 0.019600244 -0.53546214
-0.11930596 0.019588556 -0.53509933
-0.1010055 0.019623984 -0.53524011
-0.11938342 0.020566503 -0.53543985
-0.11832725 0.020552291 -0.53502822
-0.10195164 0.020583466 -0.5351336
-0.11740495 0.021526074 -0.53521329
-0.10385913 0.021540398 -0.53501308
-0.10291154 0.021545526 -0.5351007
-0.11649178 0.022502424 -0.53544325
-0.10297611 0.022524236 -0.53542846
-0.10486461 0.024441557 -0.53519893
-0.11255383 0.0253869 -0.53505403
-0.10580827 0.025399599 -0.53508425
-0.11263759 0.026370963 -0.53544497
-0.11160316 0.026356222 -0.53511298
-0.11358487 0.027330181 -0.53535336
-0.11257319 0.027320474 -0.53513157
-0.10683543 0.027342983 -0.53538251
-0.11554455 0.028299177 -0.53548366
-0.11454564 0.028292479 -0.5353263
-0.11355226 0.028287021 -0.53519243
-0.1125594 0.028281568 -0.53505862
-0.10684769 0.028311238 -0.53543621
-0.11264165 0.02926736 -0.53544235
-0.11164854 0.02926166 -0.53530842
-0.11065038 0.029254504 -0.53514785
-0.10774253 0.029255608 -0.53507912
-0.11072087 0.030238319 -0.53548133
-0.10972092 0.030230392 -0.53531218
-0.10777467 0.030229062 -0.53523111
-0.10879091 0.03120688 -0.53547662
-0.10780682 0.031203061 -0.53538311
-0.12678683 -0.068174206 -0.53469706
-0.090172917 -0.067650296 -0.534769
-0.12675837 -0.066711791 -0.53456736
-0.090162702 -0.066194557 -0.53469485
-0.12678613 -0.065279081 -0.53467464
-0.0901559 -0.065224297 -0.53464544
-0.12680462 -0.064323612 -0.53474623
-0.12682313 -0.063367881 -0.53481781
-0.089231111 -0.063320227 -0.53486133
-0.12684166 -0.062411897 -0.53488946
-0.0892184 -0.062345747 -0.53477597
-0.12782921 -0.06145931 -0.53498107
-0.089205705 -0.06137158 -0.53469062
-0.12775171 -0.060457271 -0.53465027
-0.089204133 -0.060405258 -0.53467202
-0.12782449 -0.059526417 -0.53494847
-0.12675601 -0.059476141 -0.53450888
-0.089217864 -0.059449192 -0.5347451
-0.12684649 -0.058553413 -0.53488398
-0.089234166 -0.058494546 -0.53483355
-0.12587292 -0.05758255 -0.53483725
-0.090150334 -0.057499815 -0.53453952
-0.124854 -0.056591209 -0.53459555
-0.090185106 -0.056556717 -0.53473663
-0.12591244 -0.055669896 -0.53499204
-0.12483715 -0.055619072 -0.53451681
-0.090219907 -0.055612922 -0.53493387
-0.12589543 -0.054697178 -0.53491318
-0.12483778 -0.054654874 -0.53451294
-0.12487404 -0.053706009 -0.53466159
-0.12491032 -0.052756615 -0.53481036
-0.090226889 -0.052720338 -0.53494793
-0.12494662 -0.051806699 -0.5349592
-0.12389419 -0.051768459 -0.53457868
-0.090209648 -0.051744882 -0.53483659
-0.12493821 -0.050838046 -0.53491664
-0.12389155 -0.050802831 -0.53456068
-0.090211153 -0.050780386 -0.53483641
-0.12489185 -0.049854409 -0.53471166
-0.090224959 -0.049822677 -0.53490913
-0.12589276 -0.048905462 -0.5348627
-0.091602936 -0.048822895 -0.53450114
-0.090238765 -0.048864715 -0.53498197
-0.12584604 -0.047922667 -0.53465778
-0.091615945 -0.047865018 -0.53456819
-0.12686193 -0.046978764 -0.53487128
-0.091166541 -0.046916153 -0.53474861
-0.091172501 -0.045954071 -0.5347746
-0.12582965 -0.045022979 -0.53456855
-0.091178484 -0.044991896 -0.53480065
-0.1258395 -0.044062 -0.53460389
-0.12782063 -0.04311854 -0.53482312
-0.12780339 -0.042148005 -0.53474462
-0.091208518 -0.041627675 -0.53494525
-0.12777783 -0.040692851 -0.53462803
-0.092436336 -0.040799487 -0.53460294
-0.092755832 -0.039512936 -0.53458089
-0.12777282 -0.039244577 -0.53459746
-0.1277772 -0.038281482 -0.53460932
-0.092612997 -0.038233932 -0.5346719
-0.12778157 -0.037318349 -0.53462118
-0.092610002 -0.037267938 -0.53464574
-0.12777469 -0.036351975 -0.53458601
-0.092607021 -0.036302034 -0.53461969
-0.12776415 -0.035384707 -0.53453547
-0.092604034 -0.035336222 -0.53459358
-0.12883846 -0.034451544 -0.53498942
-0.092601046 -0.034370512 -0.53456748
-0.12882943 -0.033484157 -0.53494561
-0.092598066 -0.03340489 -0.53454137
-0.12882234 -0.032517407 -0.53490973
-0.092596151 -0.032439735 -0.53452146
-0.12881523 -0.031550787 -0.53487384
-0.092605501 -0.031478513 -0.534567
-0.12880813 -0.0305843 -0.5348379
-0.092609234 -0.030515255 -0.53457975
-0.12880191 -0.029618142 -0.53480572
-0.092617504 -0.029553389 -0.53461856
-0.12882422 -0.028658452 -0.53489202
-0.092625782 -0.028591391 -0.53465754
-0.12884656 -0.027698454 -0.53497833
-0.092634052 -0.027629251 -0.5346964
-0.09264233 -0.026666967 -0.53473526
-0.092650607 -0.025704548 -0.53477412
-0.09265887 -0.024741983 -0.53481305
-0.092666008 -0.023778988 -0.53484535
-0.09264572 -0.02280912 -0.53471923
-0.12777783 -0.021889752 -0.53450292
-0.092618532 -0.021838082 -0.53455341
-0.1278045 -0.020930095 -0.53460795
-0.091241635 -0.02088723 -0.53494585
-0.12783116 -0.019970059 -0.53471303
-0.091217823 -0.019917021 -0.53479725
-0.12780347 -0.019001566 -0.53459084
-0.09122353 -0.018953478 -0.53482169
-0.12876767 -0.018038996 -0.53458714
-0.12973185 -0.01707644 -0.53458339
-0.13075548 -0.016121238 -0.53482294
-0.092626601 -0.016054111 -0.53454703
-0.13074014 -0.015154941 -0.53475386
-0.092654139 -0.015094394 -0.534697
-0.13073817 -0.013708177 -0.53473645
-0.092661105 -0.013648789 -0.53472388
-0.13073625 -0.012261498 -0.53471911
-0.092637271 -0.012198896 -0.53457302
-0.13071406 -0.011295296 -0.53462213
-0.091255091 -0.010275416 -0.5349257
-0.13075912 -0.0093703493 -0.53479379
-0.09264449 -0.0093071582 -0.5345878
-0.12974319 -0.0084010828 -0.5345732
-0.092663355 -0.008344695 -0.53468788
-0.1297802 -0.0074392245 -0.53471935
-0.093596727 -0.0073794727 -0.53450447
-0.092224643 -0.007383062 -0.5349291
-0.12981628 -0.006476792 -0.53486168
-0.12877211 -0.0055073677 -0.53452277
-0.09363468 -0.0054537603 -0.53470373
-0.12877454 -0.0045435946 -0.53452647
-0.093647279 -0.0044900584 -0.53476691
-0.12877697 -0.0035798089 -0.53453016
-0.12985539 -0.0026198074 -0.53499752
-0.1287794 -0.0026160097 -0.53453392
-0.093651153 -0.0025613902 -0.53477144
-0.12983885 -0.0016549196 -0.53492308
-0.12982228 -0.00069030025 -0.53484851
-0.093644738 -0.00063261908 -0.53471732
-0.12980577 0.00027405028 -0.53477412
-0.093641534 0.00033162005 -0.53469026
-0.12978923 0.0012381322 -0.53469968
-0.093645707 0.0012958634 -0.53470528
-0.12978169 0.0022020985 -0.53466225
-0.093650833 0.0022601844 -0.53472579
-0.093655966 0.0032245794 -0.53474629
-0.12979849 0.0041306405 -0.53471881
-0.093662083 0.0041890922 -0.53477252
-0.12984397 0.0050965212 -0.53489989
-0.094124816 0.0051515251 -0.53465343
-0.1288276 0.0060600247 -0.53467661
-0.094608359 0.0061149066 -0.53465509
-0.1289065 0.0070283245 -0.5349977
-0.095086306 0.007077842 -0.53462273
-0.12785564 0.0079890387 -0.53462929
-0.095103033 0.0080432072 -0.53470814
-0.12786469 0.0089535648 -0.53466076
-0.095123567 0.009009243 -0.53481495
-0.12789452 0.0099198138 -0.53477907
-0.096067809 0.0099698799 -0.53469563
-0.12793557 0.010887446 -0.5349443
-0.097011618 0.010930083 -0.5345763
-0.12689418 0.011846234 -0.5346126
-0.097050995 0.011898714 -0.53478479
-0.097090386 0.012868099 -0.53499341
-0.098015442 0.013343527 -0.53477436
-0.098982267 0.014788439 -0.53477675
-0.12407446 0.015715091 -0.53489274
-0.12306484 0.015710864 -0.53469509
-0.12205727 0.015706809 -0.53450334
-0.099927984 0.015748072 -0.53467041
-0.12116686 0.016682025 -0.53481889
-0.120151 0.016676413 -0.53458822
-0.10087332 0.01670732 -0.53456408
-0.099971622 0.016719269 -0.53489566
-0.12021795 0.017649962 -0.53487921
-0.11917309 0.0176396 -0.53451723
-0.10091735 0.017678721 -0.5347892
-0.1192395 0.018613547 -0.53480816
-0.10186267 0.018637788 -0.53468281
-0.11826131 0.019576885 -0.53473711
-0.10281717 0.019598285 -0.53462607
-0.10190713 0.019610217 -0.53490812
-0.11728337 0.020539971 -0.534666
-0.10474527 0.020558974 -0.53462118
-0.10380632 0.020565482 -0.53474897
-0.10287359 0.020573324 -0.53491133
-0.11631833 0.02150514 -0.53465307
-0.10858491 0.021513293 -0.53453815
-0.10764645 0.021519911 -0.5346629
-0.10670009 0.021525029 -0.5347504
-0.10575341 0.021530151 -0.5348379
-0.10480644 0.021535274 -0.53492552
-0.11540452 0.022480246 -0.53487736
-0.10858282 0.022476438 -0.53452039
-0.10763689 0.022481712 -0.53460783
-0.10669062 0.022486992 -0.53469527
-0.10574405 0.022492273 -0.53478283
-0.10479718 0.022497557 -0.53487039
-0.10384996 0.02250284 -0.53495789
-0.11445449 0.023448909 -0.53493625
-0.10668117 0.023448754 -0.53464019
-0.10573468 0.023454193 -0.53472769
-0.10478789 0.023459636 -0.53481525
-0.11350427 0.024417793 -0.53499508
-0.10667171 0.024410317 -0.53458512
-0.10572533 0.024415916 -0.53467262
-0.10666226 0.025371686 -0.5345301
-0.11052169 0.026329992 -0.53454775
-0.10675149 0.026357219 -0.53496957
-0.11055234 0.027301086 -0.53468859
-0.10769077 0.027313527 -0.53483737
-0.11156699 0.028276114 -0.53492486
-0.11057509 0.028270666 -0.53479117
-0.10958132 0.028264612 -0.53464609
-0.10771041 0.028282713 -0.53492731
-0.10965109 0.029246891 -0.53497893
-0.12577598 -0.068147346 -0.53449696
-0.12476587 -0.068120502 -0.53429693
-0.091075256 -0.068088196 -0.53441113
-0.12571672 -0.067151107 -0.53423864
-0.12470711 -0.06712465 -0.53403884
-0.091064923 -0.066633411 -0.53433704
-0.091054596 -0.06517899 -0.53426301
-0.12566821 -0.064715862 -0.53401619
-0.090593629 -0.06422852 -0.53437656
-0.12569572 -0.063284241 -0.5341233
-0.091030166 -0.063232988 -0.53410161
-0.090131275 -0.063276574 -0.53448117
-0.12571405 -0.062329475 -0.53419471
-0.091017194 -0.06225992 -0.53401655
-0.090118445 -0.062302802 -0.53439599
-0.12672965 -0.061392423 -0.53441066
-0.090105616 -0.061329335 -0.53431076
-0.12668391 -0.060406271 -0.53421128
-0.090092778 -0.060356181 -0.53422558
-0.12568933 -0.059425954 -0.53407013
-0.090097599 -0.059394967 -0.53424507
-0.12576722 -0.058498465 -0.5343945
-0.12479462 -0.057528492 -0.53434783
-0.091030426 -0.057448436 -0.53404915
-0.12378046 -0.056539603 -0.53412098
-0.091065496 -0.056506183 -0.53424591
-0.091100588 -0.055563238 -0.53444278
-0.091575362 -0.054595228 -0.5343945
-0.12382225 -0.053666446 -0.53428149
-0.091593675 -0.053641342 -0.53449208
-0.12385822 -0.052717719 -0.53443009
-0.12280758 -0.052678872 -0.53405029
-0.091576159 -0.05266653 -0.53438097
-0.12284326 -0.051730283 -0.53419876
-0.092015184 -0.051678646 -0.5341233
-0.091109417 -0.051709697 -0.53445858
-0.12284628 -0.050767653 -0.5342052
-0.12384567 -0.049819853 -0.534356
-0.1228008 -0.04978535 -0.53400081
-0.091588944 -0.04978 -0.53442854
-0.12379976 -0.048837636 -0.53415138
-0.092964925 -0.048781142 -0.5340212
-0.12479929 -0.047889397 -0.53430218
-0.092979096 -0.047824632 -0.53409374
-0.12579937 -0.046940617 -0.53445297
-0.12475306 -0.046908017 -0.53409767
-0.092536099 -0.046879567 -0.53430766
-0.12578169 -0.045969907 -0.53437126
-0.092542142 -0.045918282 -0.53433359
-0.092548169 -0.044956904 -0.53435957
-0.12475099 -0.044016514 -0.53406912
-0.092555314 -0.043995947 -0.53439194
-0.12676248 -0.043085128 -0.53442621
-0.12570591 -0.043051764 -0.53402978
-0.09393388 -0.043003172 -0.53400421
-0.092564665 -0.04303591 -0.53443712
-0.12673534 -0.042111963 -0.53430533
-0.093943335 -0.042043749 -0.53404927
-0.092574008 -0.042075705 -0.53448218
-0.12671849 -0.041142564 -0.53422767
-0.093953453 -0.041084446 -0.53409803
-0.093970619 -0.039645992 -0.53418255
-0.12669067 -0.038242951 -0.53409111
-0.093979776 -0.038203869 -0.53422159
-0.12669502 -0.037280753 -0.53410298
-0.093976736 -0.037238695 -0.53419554
-0.12669165 -0.036316294 -0.53408235
-0.093973674 -0.03627361 -0.5341695
-0.12668124 -0.035349943 -0.53403193
-0.093970627 -0.035308618 -0.53414339
-0.12775362 -0.034417626 -0.53448498
-0.093967579 -0.034343727 -0.53411734
-0.12774597 -0.033451483 -0.5344466
-0.093964532 -0.033378925 -0.53409129
-0.12773894 -0.032485634 -0.53441077
-0.093961418 -0.032414194 -0.53406489
-0.1277319 -0.031519916 -0.53437495
-0.093964055 -0.031451482 -0.53407115
-0.12772487 -0.030554328 -0.53433907
-0.093959644 -0.030486465 -0.53403735
-0.12771787 -0.029588865 -0.53430325
-0.12772933 -0.028627686 -0.53434485
-0.12775147 -0.027668662 -0.53443104
-0.12776726 -0.026707998 -0.53449064
-0.093965977 -0.026634408 -0.53403854
-0.12776567 -0.02574362 -0.53447759
-0.093974344 -0.025673244 -0.53407741
-0.12776408 -0.024779288 -0.53446454
-0.093982697 -0.024711937 -0.53411615
-0.12776251 -0.023815008 -0.53445154
-0.093991071 -0.023750493 -0.53415495
-0.093993738 -0.02278753 -0.53416145
-0.092591345 -0.020867648 -0.53438771
-0.1267174 -0.019944979 -0.53408098
-0.093029141 -0.019894969 -0.5341258
-0.092124052 -0.019905988 -0.53446132
